8077.9883 3355.1414 2476.9839 0.1418
8076.6328 3304.3655 2477.0439 0.1201
8071.4380 3253.0938 2476.1274 0.1158
8080.2080 3203.5647 2478.7651 0.1483
8089.1089 3153.9041 2481.4380 0.1241
8103.3042 3104.6611 2485.4600 0.1149
8107.4360 3054.1899 2486.9199 0.1116
8116.1616 3004.0640 2489.5513 0.1359
8111.7817 2952.6682 2488.8442 0.1488
8116.2021 2902.0046 2490.3796 0.1321
8109.9971 2850.4941 2489.2065 0.1435
8103.2188 2799.0117 2487.8870 0.1563
8095.6235 2747.5554 2486.3584 0.1361
8096.0479 2696.5886 2486.8750 0.1064
8099.9795 2645.7449 2488.2874 0.0958
8117.0591 2595.2979 2493.0559 0.1139
8142.1895 2544.8206 2499.8823 0.1234
8169.3755 2494.0088 2507.2366 0.1248
8175.6226 2442.4758 2509.2461 0.1458
8174.5161 2390.7739 2509.3772 0.1263
8140.6104 2339.0425 2501.1272 0.0936
8077.1523 2287.9602 2485.3208 0.0771
8004.1777 2237.8875 2467.0742 0.1137
7947.0757 2188.5029 2452.8777 0.1334
7876.8594 2140.2734 2435.3213 0.1129
7772.7822 2094.2046 2409.0945 0.0766
7662.9668 2049.8384 2381.3872 0.0959
7538.7754 2007.7240 2349.9888 0.1882
7395.7939 1968.4177 2313.7664 0.1501
7271.7612 1929.9298 2282.3789 0.1303
7123.4268 1894.9078 2244.7546 0.0971
7019.1367 1858.5613 2218.3953 0.2341
6977.6587 1818.3542 2208.1182 0.1852
6920.7744 1780.1383 2193.8879 0.1935
6803.9434 1748.6631 2164.2852 0.2044
6610.2480 1727.0149 2114.9612 0.1969
6037.8237 1751.1101 1968.4908 0.0404
5805.0063 1742.4075 1909.0662 0.0341
5609.5576 1732.2489 1859.2025 0.0236
5989.1274 1647.2456 1956.8790 0.1638
5962.4224 1614.5463 1950.3167 0.1379
5215.4375 1689.7917 1758.8286 0.0004
4558.8833 1761.5912 1590.4772 0.0022
5221.9780 1626.7581 1761.0051 0.0003
6460.2148 1384.0884 2079.3694 0.2078
6710.2734 1299.5896 2143.9470 0.4845
6754.3486 1249.6411 2155.6104 0.2216
6786.9072 1201.2567 2164.3174 0.3486
6846.3853 1147.0093 2179.9514 0.1399
7041.1270 1063.9021 2230.3816 0.0563
7203.3574 984.9301 2272.4712 0.3041
7245.6079 930.1500 2283.7065 0.3955
7294.7202 873.1725 2296.7136 0.3962
7313.1147 822.7061 2301.8181 0.4085
7326.0542 773.2792 2305.5208 0.2471
7321.3442 728.0596 2304.6797 0.3359
7367.9243 669.6861 2317.0503 0.1929
7457.3511 599.2798 2340.4668 0.1416
7428.7632 559.6416 2333.4790 0.2027
7498.0591 493.0782 2351.7202 0.2989
7549.8892 430.4908 2365.4663 0.3293
6278.6143 755.5455 2037.9991 0.0005
5726.3569 882.7121 1895.8563 0.0331
7452.0459 316.1352 2341.3796 0.0796
7638.9536 209.7024 2389.9949 0.2537
7769.9116 118.5841 2424.1899 0.1045
7792.2363 61.3716 2430.3538 0.1126
7909.8203 -28.2969 2461.1196 0.1194
7928.6851 -85.7032 2466.4001 0.0613
7873.7241 -117.4492 2452.6096 0.0634
7774.9858 -132.7077 2427.5000 0.1182
7703.5083 -156.5348 2409.4255 0.1117
7622.0259 -175.6077 2388.7563 0.0831
7672.2017 -243.6404 2402.1238 0.0550
7727.7646 -314.5161 2416.8899 0.0449
7754.1943 -374.7085 2424.1262 0.0481
7854.7002 -465.1290 2450.5342 0.0440
7880.7202 -526.5095 2457.6750 0.0420
7822.8501 -553.2964 2443.1016 0.0455
8284.1045 -799.6111 2562.9441 0.0928
7764.5757 -629.2159 2428.8184 0.1691
6194.1235 10.1774 2022.3811 0.2234
6034.3857 42.7899 1981.2999 0.2124
5776.9268 122.0572 1914.8734 0.1514
5358.7915 279.1494 1806.7644 0.2373
5127.8833 354.6617 1747.1527 0.2645
5108.8936 332.7412 1742.4756 0.2815
5115.7163 298.6181 1744.4927 0.3206
5115.9390 267.6169 1744.7977 0.3369
5151.7422 218.8921 1754.3374 0.3153
5166.5859 180.2117 1758.4404 0.3375
5162.0645 151.2210 1757.5176 0.3405
5101.5063 151.4027 1742.0410 0.3357
5045.7646 149.9215 1727.8085 0.3368
4982.3999 153.3192 1711.5891 0.4051
4925.4312 154.1707 1697.0245 0.4408
4866.4146 156.9704 1681.9209 0.4117
4818.6011 154.3919 1669.7231 0.4098
4771.8750 151.8917 1657.8030 0.3883
4738.5986 142.3839 1649.3756 0.3406
4707.4082 132.1474 1641.4872 0.4676
4680.2808 119.9774 1634.6525 0.3983
4654.3301 107.4973 1628.1212 0.4056
4627.0718 96.1724 1621.2461 0.3737
4592.1743 89.8824 1612.3787 0.3264
4523.9512 4238.9019 1537.5040 0.0416
4885.5273 4401.5703 1626.1774 0.2890
5008.2324 4436.9429 1656.4244 0.3530
5054.9639 4432.2368 1668.0854 0.4320
5111.6753 4431.8452 1682.1952 0.4236
5179.7417 4436.2393 1699.0927 0.3666
5232.9121 4432.4634 1712.3483 0.3354
5286.7075 4428.2388 1725.7627 0.3228
5326.8853 4416.8496 1735.8457 0.3146
5377.0728 4409.5327 1748.3867 0.3352
5471.8745 4421.8877 1771.8723 0.2734
5528.8491 4415.8999 1786.0914 0.3367
5530.3638 4384.5444 1786.7129 0.3152
5571.2969 4370.3413 1797.0055 0.2699
5650.3643 4371.9199 1816.6613 0.2566
5761.1934 4385.7964 1844.1217 0.2050
5821.4390 4377.1191 1859.1754 0.2361
5863.0493 4359.9824 1869.6595 0.2236
5931.9380 4353.1997 1886.8486 0.2207
5994.7227 4343.0400 1902.5458 0.3084
6073.2378 4338.0869 1922.1151 0.2427
6319.7749 4395.9609 1982.9894 0.1351
7934.9624 4961.6636 2380.3542 0.1017
7888.9004 4895.8633 2369.4097 0.0802
7945.7656 4867.6987 2383.7744 0.1052
8022.8877 4845.8672 2403.1287 0.0966
8062.3774 4809.9282 2413.2322 0.1008
8091.6001 4769.9395 2420.8132 0.1133
8114.6665 4727.4795 2426.8821 0.1180
8105.9316 4674.3447 2425.1235 0.1151
8084.3921 4617.2412 2420.2112 0.1101
8060.8936 4559.8057 2414.8137 0.1191
8069.3892 4512.3994 2417.2969 0.1054
8077.9917 4464.8833 2419.8076 0.1031
8094.5791 4419.5405 2424.2874 0.0970
8105.6069 4372.3711 2427.3984 0.1127
8116.2114 4324.9072 2430.4060 0.1161
8130.6279 4278.2983 2434.3560 0.1181
8131.8359 4228.0059 2435.0488 0.1299
8118.3135 4173.9189 2432.1069 0.1350
8116.6362 4122.9355 2432.0869 0.1182
8111.4038 4071.0959 2431.1899 0.1100
8095.7056 4016.8606 2427.7080 0.0915
8072.6655 3961.1570 2422.4111 0.0934
8060.3428 3908.1111 2419.7600 0.1081
8071.6260 3860.2400 2422.9397 0.0989
8074.2192 3810.3989 2423.9739 0.0965
8059.0996 3756.9785 2420.6289 0.1021
8053.9819 3705.6665 2419.7563 0.1180
8044.3755 3653.5750 2417.7729 0.1229
8056.5269 3605.4617 2421.1711 0.1279
8060.8384 3555.8174 2422.6311 0.1199
8072.7437 3507.3320 2425.9705 0.1367
8079.6426 3457.8735 2428.0723 0.1460
8077.5781 3406.9546 2427.9561 0.1450
8074.6514 3355.9197 2427.6257 0.1549
8080.9438 3306.1519 2429.5796 0.1422
8083.5000 3255.7932 2430.6079 0.1370
8090.7827 3205.9490 2432.8083 0.1338
8095.0098 3155.6304 2434.2522 0.1240
8101.3252 3105.4529 2436.2146 0.1275
8107.3115 3055.1309 2438.0962 0.1205
8128.3198 3006.0977 2443.7043 0.1315
8131.3301 2955.1987 2444.8501 0.1362
8139.4727 2904.6392 2447.2698 0.1435
8133.5503 2852.9319 2446.1997 0.1483
8128.2134 2801.3237 2445.2749 0.1344
8123.6680 2749.8140 2444.5461 0.1296
8121.3452 2698.4587 2444.3687 0.1099
8132.7012 2647.7063 2447.5891 0.0941
8153.5518 2597.1133 2453.1707 0.1068
8175.9609 2546.2473 2459.1414 0.1135
8202.9336 2495.1401 2466.2498 0.1018
8201.1582 2443.1975 2466.2131 0.1070
8182.7217 2391.1260 2462.0332 0.0850
8133.5342 2339.2720 2450.2021 0.0670
8040.6543 2288.3752 2427.4956 0.0795
7966.8354 2238.5208 2409.5220 0.1361
7900.8833 2189.5337 2393.4983 0.1494
7825.0898 2141.7371 2375.0178 0.0838
7550.9946 2101.9250 2307.1470 0.1546
7425.2397 2059.7634 2276.1946 0.1158
7334.3008 2017.6636 2253.9019 0.1227
7199.6045 1979.3068 2220.6956 0.1493
7186.8008 1935.1163 2217.8550 0.1741
7063.1318 1898.9191 2187.3748 0.1254
6925.8911 1865.5269 2153.4963 0.0774
6907.6548 1823.9706 2149.2844 0.1484
6820.1670 1789.0337 2127.7947 0.1579
6761.3535 1752.4845 2113.4495 0.0731
5337.6606 1862.0118 1758.4526 0.0009
4717.8403 1900.6183 1603.9716 0.0077
4830.7612 1859.6133 1632.3802 0.0001
4867.2764 1826.7511 1641.7195 0.0045
4256.7808 1880.7706 1489.4379 0.0002
4265.8716 1855.3826 1491.8972 0.0000
4677.3994 1769.6985 1594.9330 0.0735
4468.9995 1775.2078 1543.0504 0.5613
4468.3877 1749.6552 1543.0975 0.1414
5401.8726 1564.3258 1776.7472 0.0000
6403.7666 1353.3560 2027.6132 0.0071
6655.4478 1267.0657 2090.8914 0.2886
6610.2681 1234.3212 2079.9084 0.0569
6844.0142 1146.4652 2138.7380 0.0250
7100.9321 1050.4225 2203.3955 0.1244
7292.8042 964.5920 2251.7930 0.2179
7274.2793 922.5731 2247.5125 0.0935
7210.2026 891.2192 2231.8181 0.2369
7259.6255 833.9918 2244.5581 0.3426
7373.4019 760.3819 2273.4341 0.0788
7074.8511 788.3474 2198.9521 0.0375
7053.5093 749.1963 2193.9482 0.0737
7460.7510 596.8209 2296.4380 0.4038
7522.6040 532.5080 2312.3252 0.0547
7638.4600 452.1930 2341.7710 0.1656
7572.0605 422.4082 2325.4866 0.1370
7339.6226 442.3515 2267.5120 0.0069
6162.5762 750.0479 1972.3224 0.0004
6852.2246 499.2323 2145.8284 0.0096
6661.9917 516.0742 2098.3770 0.0061
7821.6162 99.8487 2390.0791 0.0410
7916.7339 18.1721 2414.3767 0.0518
7949.4897 -43.8696 2423.0085 0.0489
7968.5537 -101.6915 2428.2017 0.0854
7936.8545 -141.9488 2420.6304 0.0938
7835.6934 -156.8160 2395.5830 0.0999
7766.3291 -181.8866 2378.5237 0.0969
7761.5923 -230.1259 2377.7217 0.0773
7812.1201 -299.3784 2390.8306 0.0487
7861.7720 -369.0498 2403.7249 0.0437
7868.0874 -422.3227 2405.7114 0.0429
7930.9028 -498.4769 2421.9312 0.0447
7942.2646 -554.4628 2425.1936 0.0395
7899.7656 -588.1476 2414.8848 0.0802
8236.4258 -782.3264 2500.1436 0.0494
7614.0386 -566.9727 2343.6450 0.1932
6176.5635 15.6836 1981.5295 0.2446
6041.6211 37.3737 1947.7936 0.2054
5796.4321 111.0882 1886.2279 0.1645
5357.1025 277.9650 1775.6432 0.2481
5106.9116 362.5986 1712.7485 0.3028
5100.0337 335.0417 1711.2524 0.3436
5091.3604 308.4400 1709.3026 0.3310
5107.8838 269.5851 1713.7159 0.3540
5138.0947 223.6556 1721.5887 0.3141
5148.5801 187.2389 1724.4812 0.3540
5133.2578 163.8892 1720.8519 0.3443
5077.3408 161.8658 1706.9581 0.3511
5036.0249 152.9487 1696.7505 0.4189
4979.7739 152.6141 1682.7609 0.3849
4914.8706 157.7859 1666.5757 0.4034
4849.5957 164.1036 1650.2894 0.4318
4806.5645 158.9808 1639.6251 0.4498
4769.7749 150.9570 1630.5366 0.4102
4737.1313 141.0916 1622.4935 0.3667
4705.9263 130.8624 1614.8109 0.4315
4681.6387 117.0240 1608.8771 0.3807
4652.4902 106.4184 1601.7096 0.4117
4623.3589 96.2202 1594.5427 0.3784
4585.3848 91.8222 1585.1309 0.3199
4410.4541 4181.1729 1486.2356 0.0270
4850.1602 4385.3813 1591.0709 0.2667
4988.2012 4428.8975 1624.1393 0.3753
5042.4185 4428.1118 1637.2627 0.3927
5107.9771 4432.2222 1653.0933 0.3897
5175.3921 4436.3271 1669.3727 0.3710
5233.6807 4435.0615 1683.4849 0.3672
5285.4727 4429.8726 1696.0551 0.3632
5329.4883 4420.2905 1706.7771 0.3209
5388.2261 4416.9189 1721.0139 0.3427
5456.3901 4417.0317 1737.5049 0.3428
5532.0801 4419.5762 1755.7985 0.3524
5555.5645 4397.9097 1761.6447 0.3007
5603.4487 4386.5532 1773.3163 0.2684
5665.3604 4380.5439 1788.3411 0.2505
5756.2471 4385.9062 1810.2900 0.2166
5811.1968 4375.0547 1823.6669 0.2325
5870.0278 4365.0127 1837.9772 0.2052
5930.3022 4354.7178 1852.6381 0.2391
5994.2695 4345.0283 1868.1882 0.2866
6098.9438 4350.2222 1893.4741 0.2391
6274.1606 4380.8164 1935.6346 0.1546
7902.8804 4952.5142 2325.3574 0.1073
7858.1826 4887.3701 2315.0374 0.0847
7904.8354 4855.7183 2326.5649 0.1238
7983.0908 4834.5522 2345.6589 0.1235
8024.6230 4799.5635 2355.9729 0.1021
8058.5825 4761.4062 2364.4788 0.1074
8091.9512 4722.5571 2372.8469 0.1181
8100.3984 4675.1157 2375.2502 0.1119
8089.8589 4621.4932 2373.1074 0.1130
8069.3882 4564.9048 2368.5840 0.1192
8064.3843 4513.2847 2367.7646 0.1086
8065.4229 4463.5093 2368.3933 0.0964
8077.4268 4416.8799 2371.6514 0.0934
8080.8633 4367.6328 2372.8567 0.1036
8084.8525 4318.4688 2374.1948 0.1055
8091.4302 4269.9233 2376.1545 0.0951
8076.8394 4215.7124 2373.0354 0.1010
8044.3315 4157.1113 2365.6150 0.1111
8043.7554 4106.8696 2365.8564 0.0982
8047.5488 4057.6670 2367.1479 0.0845
8032.4321 4003.9609 2363.8977 0.0825
8005.6943 3947.8064 2357.8550 0.0980
7990.7515 3894.6006 2354.6428 0.1172
8010.4648 3848.9670 2359.7588 0.1192
8013.5874 3799.6162 2360.8887 0.1119
8001.4390 3747.1599 2358.3472 0.1146
7980.8496 3693.2319 2353.7749 0.1362
7993.7563 3645.7661 2357.2576 0.1112
8029.2690 3602.1177 2366.1809 0.1139
8040.7148 3553.8347 2369.3164 0.1402
8043.2847 3503.9146 2370.3167 0.1597
8056.2007 3455.5571 2373.8088 0.1651
8062.8906 3406.0632 2375.8027 0.1580
8064.4463 3355.7202 2376.5610 0.1740
8074.8657 3306.5344 2379.4553 0.1508
8083.7925 3256.9866 2381.9907 0.1174
8101.0005 3208.2954 2386.5234 0.1188
8101.4404 3157.4211 2387.0161 0.1198
8110.6895 3107.4626 2389.6326 0.1342
8124.3608 3057.7939 2393.3171 0.1245
8136.9834 3007.8110 2396.7505 0.1296
8149.3506 2957.6042 2400.1233 0.1318
8154.9941 2906.6689 2401.8755 0.1526
8151.3125 2854.9607 2401.3765 0.1631
8149.4087 2803.3967 2401.3074 0.1364
8156.3389 2752.3459 2403.3713 0.1177
8160.5996 2701.0393 2404.7910 0.1084
8169.1704 2649.8359 2407.2532 0.0885
8190.4072 2598.9478 2412.7778 0.0865
8202.6270 2547.4714 2416.1248 0.0939
8210.9424 2495.7114 2418.5293 0.1085
8201.5850 2443.5454 2416.6609 0.1175
8165.0010 2391.2751 2408.2058 0.0803
8097.6919 2339.4797 2392.3140 0.0557
8043.1602 2288.5393 2379.5066 0.0623
7983.8252 2238.4189 2365.5312 0.1706
7875.2334 2190.1392 2339.6243 0.0970
7679.4795 2145.8081 2292.5989 0.1026
7555.9951 2101.7263 2263.0571 0.1159
7333.0298 2063.5715 2209.4011 0.0936
7158.2065 2026.2134 2167.3872 0.1517
7102.1895 1984.6381 2154.1497 0.1166
6996.0986 1947.0244 2128.7671 0.0624
6801.4053 1917.1704 2081.8884 0.1036
6501.4238 1898.2797 2009.4525 0.0661
6749.3291 1837.1006 2069.8960 0.0449
6597.4893 1809.1902 2033.3711 0.0767
6300.8066 1797.8251 1961.6765 0.0412
4773.8936 1921.7141 1591.3085 0.0008
4831.1323 1887.4214 1605.4174 0.0007
4533.7812 1895.1470 1533.4164 0.0000
4443.8447 1880.5751 1511.7671 0.0170
5180.6758 1755.4905 1690.9882 0.3985
4883.8857 1766.9949 1619.0944 0.1377
4466.1025 1800.8541 1517.7572 0.0000
4226.8789 1812.7153 1459.7882 0.0000
4649.0469 1719.5486 1562.6360 0.0390
4744.3657 1676.2439 1586.0265 0.0642
5425.8462 1526.9869 1752.0393 0.0004
5280.0796 1521.4312 1716.8141 0.0012
4026.1140 1731.6351 1411.8293 0.0048
3918.6218 1730.5940 1385.8301 0.0384
3288.8003 1839.3423 1232.6232 0.0297
3124.8787 1857.2583 1192.8275 0.0050
2016.3123 2086.9478 922.8734 0.0000
2693.7920 1923.8066 1088.0236 0.0000
2135.2778 2042.7349 951.9918 0.0000
6746.4888 911.5588 2076.2300 0.0006
6721.0674 875.6305 2070.3521 0.0052
2519.1809 1916.9545 1045.8293 0.0000
1990.9353 2045.2700 917.0497 0.0000
2157.2004 1992.0930 957.6801 0.0002
2360.4546 1926.1602 1007.3566 0.0003
1869.7032 2056.3447 887.6344 0.0000
2034.5709 2000.8302 927.9445 0.0060
2445.7017 1868.7056 1028.4175 0.0000
5437.6543 934.1129 1759.3938 0.1082
7282.0259 318.5411 2210.2993 0.0233
7641.0049 156.1526 2298.3840 0.0257
8020.1201 -18.1322 2391.4312 0.0786
8026.9570 -72.2359 2393.4954 0.1446
8012.8091 -119.2233 2390.4290 0.1376
7992.9194 -164.0057 2385.9563 0.1231
7974.1948 -208.9402 2381.7673 0.1112
7865.0186 -220.4443 2355.4397 0.0911
7895.6606 -282.6895 2363.3257 0.0436
7931.3110 -347.3154 2372.4412 0.0298
7981.5220 -418.1445 2385.1267 0.0353
7944.7476 -455.2819 2376.5112 0.0464
7992.7012 -526.0786 2388.6506 0.0745
8015.1260 -587.1165 2394.5386 0.0698
7929.2358 -603.2352 2373.8806 0.0819
8081.5786 -719.4340 2411.6206 0.0520
7475.1875 -509.6667 2263.3164 0.1764
6158.1147 21.5911 1940.6277 0.2222
6010.8320 48.9527 1904.7860 0.2308
5825.6167 95.6985 1859.6191 0.1554
5365.5835 272.0806 1746.9789 0.2107
5133.2070 348.3714 1690.1781 0.2895
5115.8833 325.5706 1686.1594 0.3276
5089.9453 307.1789 1680.0236 0.3289
5113.2100 264.9830 1685.9724 0.3689
5139.8726 220.7369 1692.7588 0.3435
5146.0288 186.4600 1694.5085 0.3475
5130.1450 163.3924 1690.8402 0.3298
5088.3154 154.0526 1680.7908 0.3750
5049.2310 143.8654 1671.4121 0.3578
4987.3032 146.4700 1656.4089 0.4108
4911.9209 157.2768 1638.0890 0.4225
4848.2852 162.7185 1622.6511 0.4502
4803.8081 158.4041 1611.9230 0.4639
4769.2729 149.1174 1603.6377 0.4340
4733.4922 141.0397 1595.0422 0.3955
4703.8779 129.9030 1587.9615 0.4455
4681.0996 115.1782 1582.5621 0.4145
4651.8872 104.6022 1575.5743 0.4267
4623.7021 93.8271 1568.8370 0.3947
4579.7090 93.0871 1558.1989 0.3103
4336.3848 4144.0962 1445.5596 0.0181
4852.2876 4388.6548 1565.0587 0.2711
4977.4507 4425.5967 1594.2155 0.3633
5037.4619 4427.8203 1608.3093 0.3876
5109.8003 4435.3555 1625.2623 0.3865
5175.2627 4438.4922 1640.6309 0.3518
5233.5684 4437.2378 1654.3494 0.4221
5285.7007 4432.2090 1666.6439 0.3655
5329.4858 4422.5093 1677.0106 0.3478
5379.3984 4415.0366 1688.8014 0.3573
5440.9438 4412.1831 1703.2933 0.3797
5505.1592 4409.6670 1718.4104 0.3076
5555.5513 4400.1104 1730.3296 0.2977
5611.7500 4392.3774 1743.6005 0.2528
5683.2725 4390.4404 1760.4314 0.2304
5755.6450 4387.8545 1777.4670 0.2114
5803.2588 4373.9463 1788.7649 0.2231
5869.7808 4367.0977 1804.4562 0.2113
5937.6753 4359.8613 1820.4734 0.2329
6003.8828 4350.9985 1836.1060 0.2663
6120.3223 4360.7036 1863.4122 0.2170
6207.4595 4357.5977 1883.9235 0.1828
7878.1318 4946.0898 2272.4028 0.0968
7808.9155 4872.0444 2256.6741 0.0892
7865.0815 4844.1348 2270.0857 0.1246
7926.8013 4817.3828 2284.7952 0.1235
7975.4131 4785.2075 2296.4622 0.1069
8023.4351 4752.1309 2307.9971 0.1019
8066.1421 4716.5947 2318.3008 0.1019
8086.3228 4673.1064 2323.3662 0.1025
8083.7695 4622.0728 2323.1421 0.1063
8068.5952 4567.1201 2319.9797 0.1113
8060.6582 4514.5620 2318.5005 0.0959
8053.2832 4462.2593 2317.1523 0.0885
8051.5205 4411.6689 2317.1106 0.0818
8052.2476 4361.7861 2317.6494 0.0902
8058.5806 4313.4219 2319.4951 0.0981
8072.9990 4267.1260 2323.2266 0.0960
8058.7212 4213.0723 2320.2676 0.0903
8007.8706 4149.8525 2308.7778 0.0893
8000.0366 4098.0132 2307.3181 0.0817
7997.1221 4047.4497 2307.0054 0.0976
7986.5356 3995.1057 2304.9021 0.0776
7973.0752 3942.2349 2302.1272 0.0977
7952.0361 3887.8621 2297.5811 0.1268
7973.1289 3842.7507 2302.8730 0.1402
7979.0034 3794.1812 2304.6125 0.1327
7969.1714 3742.3772 2302.6826 0.1207
7948.0723 3688.5237 2298.1187 0.1777
7957.4058 3640.5806 2300.6665 0.1482
8001.7080 3598.7114 2311.3921 0.1292
8028.1118 3553.1335 2317.9360 0.1698
8031.3770 3503.3662 2319.0708 0.2074
8036.3154 3453.7930 2320.5974 0.1741
8050.8735 3405.5693 2324.3760 0.1443
8064.2368 3356.9468 2327.8765 0.1655
8077.7764 3308.1367 2331.4197 0.1412
8091.8315 3259.1790 2335.0854 0.1138
8105.8770 3209.9978 2338.7505 0.1258
8111.8774 3159.6748 2340.5322 0.1243
8118.9756 3109.3613 2342.5723 0.1381
8131.2344 3059.4426 2345.8225 0.1315
8145.1797 3009.4846 2349.4697 0.1445
8155.6221 2959.0034 2352.2971 0.1599
8175.5913 2909.1055 2357.3601 0.1339
8176.4814 2857.5273 2357.9497 0.1324
8171.6475 2805.5425 2357.1968 0.1468
8174.9141 2754.0708 2358.3442 0.1283
8180.9370 2702.6697 2360.1392 0.1043
8197.2344 2651.6072 2364.3474 0.0866
8211.8857 2600.2288 2368.1711 0.0862
8220.2402 2548.4348 2370.5173 0.1027
8224.2363 2496.4016 2371.8408 0.1058
8206.5098 2443.9619 2368.0593 0.1374
8147.1143 2391.4221 2354.4812 0.1118
8097.0459 2339.7134 2343.0901 0.0522
8100.4644 2288.3555 2344.2725 0.0540
8086.3813 2237.1626 2341.3384 0.0796
7746.0566 2192.8809 2261.6458 0.0398
7547.9897 2149.4858 2215.3953 0.0583
7013.5020 2120.6511 2089.9360 0.0378
6451.7437 2100.5852 1958.0001 0.0344
6322.9219 2067.2234 1927.9568 0.1741
6654.2842 2009.7374 2006.2922 0.0420
6686.5698 1966.4954 2014.2021 0.0225
6548.2939 1934.8331 1981.9240 0.0286
6523.9160 1896.2639 1976.4761 0.0482
6543.9346 1854.2502 1981.4926 0.0421
6184.9365 1846.8839 1897.1373 0.0561
6045.4150 1822.8369 1864.5096 0.0079
4609.3423 1938.9552 1525.9958 0.0417
4512.8413 1923.3000 1503.4216 0.1104
4774.2524 1865.7334 1565.3103 0.0232
4244.6294 1905.7523 1440.4873 0.0000
4004.4419 1914.2096 1383.9508 0.0000
3399.8032 1978.0533 1241.3140 0.0000
3373.9692 1963.9355 1235.3438 0.0000
3300.5874 1957.6426 1218.1364 0.0000
3416.6958 1921.2996 1245.7042 0.3172
3483.9897 1891.6381 1261.7455 0.5165
3641.7288 1844.8497 1299.1790 0.0058
3729.8625 1808.7065 1320.1678 0.0093
3833.4800 1768.2946 1344.8290 0.9385
3738.8123 1766.0724 1322.5864 0.4973
2451.1035 2012.6693 1017.9952 0.0000
1948.7877 2109.2881 899.1756 0.9993
1937.6656 2104.1812 896.5980 0.9998
1948.6589 2094.1646 899.2568 1.0000
1947.0441 2086.9656 898.9301 0.9998
2006.9008 2064.8130 913.1672 0.0986
2484.3086 1937.0531 1026.3600 0.0000
1973.1300 2057.5059 905.2807 0.9942
1946.1289 2056.8982 898.9366 0.9999
1951.8417 2047.7615 900.3472 0.9998
1983.1766 2031.3684 907.8356 0.9992
1973.9249 2026.1694 905.6987 0.9999
1937.3832 2029.1346 897.0849 0.9999
1915.9233 2028.0778 892.0469 0.9998
2079.1462 1970.2809 930.8509 0.0000
2265.8145 1902.6932 975.2396 0.0000
3369.0684 1535.9125 1237.3470 0.0397
7759.5425 65.8708 2280.4976 0.0116
8192.4932 -130.4242 2383.7429 0.1432
8175.5474 -177.7005 2380.1072 0.2442
8097.6514 -203.2638 2361.9802 0.1941
8053.2651 -239.7740 2351.8127 0.1336
7971.7666 -262.0338 2332.8147 0.1361
7894.4194 -284.6814 2314.7954 0.0301
7942.4878 -354.1048 2326.6091 0.0507
8018.4634 -435.1118 2345.0701 0.0322
7987.1709 -474.7323 2338.0046 0.0502
8040.7104 -548.1661 2351.1348 0.0802
8045.2627 -602.2715 2352.6035 0.0849
7911.4702 -598.5906 2321.1184 0.0730
8072.2886 -718.3823 2359.8142 0.0748
7422.5405 -489.5782 2205.3552 0.1497
6115.1562 38.3018 1894.0638 0.2147
5969.4546 65.2934 1859.6064 0.2135
5818.8911 96.6180 1823.9740 0.1998
5443.5952 234.0379 1734.7191 0.1900
5172.0967 328.2014 1670.1891 0.2653
5108.1934 327.3102 1655.1703 0.2985
5113.4863 293.8275 1656.6616 0.3348
5142.8818 248.4006 1663.9081 0.3638
5167.8452 204.7390 1670.0994 0.3657
5172.1074 171.1800 1671.3491 0.3502
5154.0425 149.0163 1667.2649 0.3305
5112.7515 139.2083 1657.6287 0.3505
5063.1772 134.3731 1646.0081 0.3636
4994.2520 140.6256 1629.7559 0.4473
4920.0166 150.7657 1612.2266 0.4790
4846.3232 161.6894 1594.8188 0.4531
4799.2676 158.8220 1583.7761 0.4570
4767.8135 147.8155 1576.4615 0.4461
4732.0029 139.7556 1568.1008 0.4129
4702.0537 128.8117 1561.1396 0.4915
4674.9736 116.6114 1554.8623 0.4492
4647.4082 105.0888 1548.4659 0.3996
4626.7246 89.8149 1543.7155 0.3939
4587.4116 86.1958 1534.4985 0.3084
4236.3213 4093.2302 1399.9965 0.0113
4861.5396 4395.6426 1540.5648 0.3042
4977.8667 4428.0239 1566.8896 0.3394
5031.1357 4426.8325 1579.0591 0.3888
5100.8862 4433.1289 1594.9376 0.4047
5172.9541 4439.5889 1611.3439 0.3826
5225.2314 4435.4224 1623.3083 0.4359
5282.5059 4432.9116 1636.4015 0.3612
5333.7461 4426.7446 1648.1434 0.3247
5379.2900 4417.2046 1658.6091 0.3714
5426.4238 4407.7485 1669.4369 0.3788
5463.8633 4393.2490 1678.0883 0.3914
5490.0063 4373.1963 1684.2000 0.3365
5530.9189 4359.2275 1693.6401 0.2987
5601.4941 4357.4438 1709.7645 0.2729
5709.3677 4370.4619 1734.2982 0.2531
5791.7769 4371.3584 1753.1051 0.2675
5853.9165 4362.7900 1767.3525 0.2101
5918.5444 4354.3447 1782.1672 0.2295
5988.7339 4347.1846 1798.2419 0.2881
6110.9844 4359.2671 1826.0647 0.2476
6235.9272 4370.6592 1854.5067 0.2156
7877.0957 4948.5371 2225.0374 0.0663
7797.9751 4870.7808 2207.5312 0.0878
7832.3813 4835.0708 2215.6414 0.1317
7868.2769 4799.3853 2224.0918 0.1269
7927.7554 4771.3564 2237.8708 0.1003
7992.4429 4744.2471 2252.8328 0.0836
8039.8398 4710.4551 2263.8950 0.0855
8061.4590 4667.5762 2269.1377 0.0944
8064.3018 4618.3862 2270.1387 0.0962
8058.6475 4566.4844 2269.2195 0.1066
8044.6362 4512.0908 2266.4099 0.1097
8031.7954 4458.2212 2263.8638 0.0819
8021.0942 4405.1304 2261.8010 0.0732
8015.4756 4353.6104 2260.8872 0.0890
8019.4043 4304.7910 2262.1335 0.0986
8028.1968 4257.2070 2264.4814 0.0972
8008.0718 4201.8765 2260.2832 0.0805
7971.3301 4142.5562 2252.3196 0.0962
7961.0894 4090.3230 2250.3555 0.1073
7957.6953 4039.8665 2249.9421 0.1008
7950.0210 3988.4312 2248.5583 0.1198
7937.0332 3935.8718 2245.9695 0.1260
7916.4849 3881.8062 2241.6655 0.1538
7917.1450 3832.5369 2242.1687 0.1516
7934.6445 3786.7139 2246.4919 0.1268
7936.0127 3737.4048 2247.1572 0.1188
7926.4702 3685.9548 2245.3472 0.2035
7924.0273 3635.9331 2245.1477 0.1635
7970.1392 3594.5815 2255.9702 0.1448
8002.0605 3550.1267 2263.5759 0.1902
8018.0835 3502.5884 2267.5745 0.1420
8022.0098 3452.9006 2268.8264 0.1696
8048.9961 3406.5950 2275.3186 0.1399
8073.4302 3359.5200 2281.2336 0.1761
8083.4258 3310.1147 2283.8691 0.1561
8099.6230 3261.3442 2287.9158 0.1504
8111.5264 3211.7981 2290.9880 0.1602
8115.7339 3161.1792 2292.3108 0.1497
8127.2837 3111.2668 2295.3052 0.1606
8135.7070 3060.8542 2297.5886 0.1537
8156.5024 3011.4536 2302.6895 0.1867
8166.0522 2960.7649 2305.2327 0.1968
8193.7500 2911.3547 2311.9099 0.1337
8213.3018 2860.9402 2316.7341 0.1319
8213.1445 2808.9448 2317.0706 0.1104
8202.5957 2756.3274 2315.0388 0.1114
8212.9053 2704.8950 2317.7605 0.1091
8218.6338 2653.0928 2319.4392 0.1145
8234.7402 2601.5635 2323.4849 0.1013
8244.0625 2549.5833 2325.9856 0.1142
8238.6104 2497.1177 2325.1162 0.1520
8208.8740 2444.3408 2318.7053 0.1676
8163.1982 2391.8384 2308.6538 0.1625
8144.8950 2339.9863 2304.8464 0.0428
8100.3735 2288.5383 2295.0508 0.0495
7604.4858 2243.7886 2182.1631 0.0287
7061.8232 2207.0691 2058.5398 0.0206
6858.5352 2168.6616 2012.4060 0.0305
6764.6182 2129.3232 1991.2468 0.0701
5941.3242 2122.0088 1803.3468 0.0703
5323.7734 2116.3335 1662.4050 0.0000
5440.6006 2078.0601 1689.3499 0.0000
5503.4761 2041.5288 1703.9651 0.0323
6043.3984 1970.3291 1827.7354 0.1261
6456.9775 1901.2142 1922.6471 0.1334
6009.2739 1899.4426 1820.4524 0.2660
5721.4644 1889.3269 1754.8201 0.1672
5820.5952 1844.8427 1777.7693 0.0000
4901.2690 1907.5371 1567.4448 0.1014
4934.9014 1874.9501 1575.3560 0.4445
3722.5229 1992.6747 1297.7357 0.0000
3581.6438 1990.4373 1265.5901 0.0000
3162.0295 2027.9679 1169.5265 0.0000
3364.5654 1982.7964 1216.0873 0.0000
2874.1494 2038.5287 1103.7299 0.0000
2212.6296 2128.1948 952.0677 0.2075
2160.2864 2127.3345 940.1242 0.0252
2254.6973 2102.0608 961.8584 0.0003
2273.7854 2088.8794 966.3105 0.0005
2353.7305 2064.1038 984.7388 0.0000
2512.8494 2022.8771 1021.3596 0.0000
1981.1710 2117.7588 899.3019 0.9730
1931.2205 2120.3186 887.8802 0.9998
1935.9147 2111.8579 889.0125 1.0000
1935.7894 2104.3962 889.0373 1.0000
1930.8975 2098.0264 887.9661 1.0000
1957.7694 2084.2100 894.1996 1.0000
1921.1572 2085.4780 885.8322 0.9990
1948.9264 2071.1104 892.2747 0.9931
1949.3943 2063.3889 892.4367 1.0000
1962.2372 2052.3704 895.4474 1.0000
1948.7906 2048.3350 892.4066 1.0000
1956.1388 2038.6667 894.1534 1.0000
1962.3778 2029.2069 895.6454 0.9999
1969.0442 2019.5273 897.2366 0.9993
1960.9448 2014.2047 895.4257 0.9992
1950.0765 2009.8531 892.9756 0.9988
2148.9333 1939.2844 938.8784 0.0002
2005.0092 1976.7917 905.7530 0.9937
2085.4229 1942.1278 924.3590 0.7655
8117.7432 -107.4248 2316.1663 0.1188
8302.6562 -223.9729 2359.2151 0.3884
8256.0205 -261.5255 2348.8376 0.2528
8164.6348 -282.3008 2328.1230 0.2399
8030.3979 -286.0173 2297.5044 0.1145
7974.1689 -317.0355 2284.8901 0.1103
7944.1450 -357.2696 2278.3237 0.0648
7997.1255 -429.4144 2290.9353 0.0470
8004.2661 -484.1702 2292.9570 0.0827
8040.6660 -550.8771 2301.7446 0.0803
8073.7720 -616.7864 2309.7744 0.0839
7978.3696 -629.3911 2288.0847 0.0817
7995.3833 -688.5195 2292.3921 0.0756
7065.6592 -337.5932 2077.6309 0.1890
6052.3340 63.7988 1843.4225 0.2132
5933.6226 79.1803 1816.2112 0.2195
5799.8994 103.1251 1785.5116 0.2225
5397.7949 253.2201 1692.6398 0.2285
5225.3071 301.2597 1652.9182 0.2958
5161.4243 299.9638 1638.3436 0.2859
5166.8975 265.9675 1639.8362 0.3218
5195.2974 220.5913 1646.6444 0.3574
5218.2544 177.5015 1652.1940 0.3580
5220.2144 144.7030 1652.8761 0.3667
5202.4365 122.0132 1648.9801 0.3449
5157.4121 113.7847 1638.7601 0.3285
5078.1455 124.3214 1620.5889 0.3726
4992.1997 139.5974 1600.8586 0.4309
4918.5571 149.4382 1583.9761 0.4833
4845.0889 160.2568 1567.1263 0.4347
4801.9526 155.2043 1557.3149 0.4110
4765.4360 147.0305 1549.0367 0.4427
4725.5933 141.2901 1539.9819 0.3982
4695.3945 130.5256 1533.1649 0.5219
4667.3403 118.9338 1526.8436 0.4827
4647.1626 103.0539 1522.3507 0.4438
4621.9487 90.4969 1516.6843 0.4085
4584.7695 85.6052 1508.2316 0.3468
4050.4248 3996.9360 1337.0427 0.0123
4800.9585 4366.2568 1500.6815 0.2418
4977.7197 4430.1670 1539.3807 0.3341
5018.8945 4422.8428 1548.5496 0.3750
5084.4648 4427.1401 1563.0400 0.4205
5166.3599 4438.5728 1581.0959 0.4123
5213.6553 4432.0259 1591.6151 0.4481
5269.8145 4429.0601 1604.0719 0.3520
5323.9814 4424.3613 1616.0997 0.3155
5374.7100 4417.2949 1627.3822 0.3438
5414.7964 4404.6304 1636.3470 0.3440
5449.4414 4388.9365 1644.1282 0.3622
5475.1528 4368.7739 1649.9618 0.4053
5521.9795 4357.4854 1660.4100 0.3314
5591.9033 4355.4844 1675.9082 0.2913
5700.1069 4368.7256 1699.7775 0.3687
5789.3047 4372.5210 1719.5037 0.1788
5846.8066 4362.0625 1732.3099 0.2010
5905.8057 4351.3916 1745.4490 0.2262
5964.9980 4339.9600 1758.6365 0.3091
6087.1675 4352.1929 1785.6056 0.2500
6364.3989 4421.9658 1846.5129 0.2253
7969.1411 4985.9126 2197.9619 0.0692
7749.1177 4855.5527 2150.1438 0.0768
7787.2188 4821.4839 2158.8174 0.0928
7826.7368 4787.3638 2167.8057 0.1103
7893.2080 4762.0283 2182.7014 0.1240
7964.1138 4737.2505 2198.5750 0.0971
8022.2856 4707.2158 2211.6655 0.0867
8043.6636 4664.3403 2216.6975 0.0943
8053.0952 4617.3296 2219.1123 0.0902
8047.1304 4565.3569 2218.1521 0.1048
8021.9717 4507.5874 2212.9822 0.0965
8004.3438 4452.3945 2209.4619 0.0806
7986.5547 4397.3794 2205.9043 0.0672
7968.5532 4342.5317 2202.2988 0.0907
7969.9639 4293.2949 2202.9534 0.1054
7969.5264 4243.5181 2203.2017 0.1166
7959.0283 4191.0771 2201.2410 0.0809
7936.6006 4135.7070 2196.6594 0.0930
7921.7852 4082.5259 2193.7478 0.1296
7925.5137 4034.0188 2194.9099 0.1323
7922.7075 3983.9026 2194.6367 0.1436
7918.8140 3933.5559 2194.1240 0.1554
7890.7148 3877.8958 2188.2878 0.1648
7898.7637 3830.3389 2190.4006 0.1542
7916.2637 3784.6003 2194.5938 0.1345
7915.8804 3735.0217 2194.8528 0.1252
7923.0557 3686.8823 2196.7761 0.1770
7920.2212 3636.7622 2196.4963 0.1736
7957.4961 3593.8201 2205.0488 0.1628
7992.7759 3549.9868 2213.1660 0.2017
8011.9048 3502.9778 2217.7283 0.1505
8035.0913 3456.3137 2223.1865 0.1849
8061.9341 3409.8481 2229.4536 0.1715
8084.5537 3362.3752 2234.7925 0.1975
8093.2690 3312.6675 2237.0674 0.1798
8109.8735 3263.8311 2241.0837 0.1741
8118.0713 3213.7119 2243.2471 0.1766
8126.9365 3163.5298 2245.5583 0.1600
8133.7241 3112.9753 2247.4126 0.1653
8144.9873 3062.7520 2250.2559 0.1575
8161.4487 3012.8315 2254.2476 0.1876
8179.1802 2962.7637 2258.5215 0.1965
8199.5166 2912.6274 2263.3735 0.1941
8220.2256 2862.2053 2268.3096 0.1350
8235.3379 2811.1011 2272.0105 0.1181
8237.5000 2759.0083 2272.8508 0.1104
8237.4434 2706.7493 2273.2019 0.1250
8247.8428 2654.9238 2275.8640 0.1393
8258.7988 2602.9468 2278.6514 0.1416
8257.4688 2550.4292 2278.7212 0.1529
8247.8477 2497.7219 2276.9570 0.1921
8235.4102 2445.0864 2274.5679 0.2202
8156.3945 2392.0732 2257.4385 0.2186
8124.7520 2340.2061 2250.7915 0.0437
7750.8564 2290.9270 2168.3354 0.0605
7207.0293 2249.2607 2048.1965 0.0486
6786.3013 2212.8164 1955.2808 0.0330
6440.1069 2180.3049 1878.8428 0.0171
5823.3247 2162.1868 1742.3845 0.2292
5701.4961 2132.0508 1715.6152 0.0346
5714.7461 2096.9902 1718.7927 0.0000
5024.2881 2101.4414 1565.8627 0.0000
5153.7271 2063.6272 1594.7889 0.0000
5091.5542 2037.5057 1581.2020 0.0141
5031.1392 2012.1268 1567.9999 0.0175
4693.5869 2011.2025 1493.2565 0.0004
5157.4824 1941.1080 1596.4712 0.0000
5498.9082 1876.5204 1672.5272 0.0000
4520.3315 1947.8870 1455.3291 0.4860
4235.5576 1954.2833 1392.2225 0.6490
4167.9272 1938.4674 1377.3558 0.0950
3845.8655 1956.2657 1305.9128 0.0581
3680.1179 1957.5094 1269.2001 0.0165
3456.5586 1969.3855 1219.6111 0.0003
2510.4282 2092.8333 1009.2367 0.0002
2007.5436 2160.2610 897.4067 0.8686
2003.2485 2152.9800 896.5061 0.9590
2021.3105 2141.9204 900.5825 0.9524
2047.4966 2129.1433 906.4700 0.9897
2032.6610 2123.6167 903.2231 0.9800
2017.5107 2118.3621 899.9047 0.3241
1969.9601 2119.8203 889.3647 0.9959
1967.1246 2112.6729 888.7864 0.9994
1946.4167 2109.4058 884.2234 0.9999
1938.5653 2103.5779 882.5251 1.0000
1932.1895 2097.5215 881.1553 1.0000
1938.6815 2088.5073 882.6555 0.9998
1941.3051 2080.3398 883.2932 0.9996
1939.8987 2073.1436 883.0316 0.9998
1943.0398 2064.7883 883.7853 1.0000
1953.5673 2054.4209 886.1886 1.0000
1967.2651 2043.0310 889.3011 0.9997
1974.1617 2033.3453 890.8954 0.9998
1982.2592 2023.2103 892.7590 0.9992
1979.0009 2016.3029 892.0854 0.9988
1985.0524 2006.6262 893.4926 0.9982
1992.3893 1996.4595 895.1880 0.9994
1976.6338 1993.4974 891.7195 0.9990
1992.1602 1980.6246 895.2473 0.9982
1995.1565 1971.6732 895.9730 0.9987
2030.2960 1951.7897 903.8925 0.9626
8063.4336 -143.6009 2254.4587 0.0039
8277.2773 -271.4609 2302.7014 0.4417
8301.4014 -334.0651 2308.4785 0.1928
8083.8828 -308.1531 2260.1299 0.1450
8023.3579 -337.9850 2246.9338 0.1453
7965.5415 -367.9913 2234.3389 0.0814
7986.8145 -428.0051 2239.4666 0.0701
8043.3091 -502.3431 2252.4934 0.0784
8070.8843 -565.8347 2259.0405 0.0890
8063.8252 -615.4924 2257.8220 0.0800
8009.2974 -645.1733 2245.9531 0.0710
8045.6587 -712.8410 2254.4753 0.0768
6264.8955 7.2488 1855.1311 0.2031
6023.7646 74.2332 1801.2686 0.2223
5939.4473 74.4097 1782.5956 0.2230
5785.2676 107.6569 1748.2222 0.2623
5452.5889 225.8410 1673.7310 0.2492
5285.1094 271.1638 1636.3286 0.3261
5213.6851 273.0284 1620.4993 0.2916
5225.0386 235.7582 1623.2720 0.3073
5239.3706 196.8380 1626.7161 0.3630
5243.4707 162.8086 1627.8602 0.3521
5256.8667 123.9873 1631.0963 0.3582
5250.0200 95.3751 1629.7791 0.3451
5209.1021 84.6402 1620.7924 0.3083
5096.9092 112.2404 1595.7561 0.3055
5001.2358 132.6133 1574.4280 0.3798
4927.9688 142.1903 1558.1368 0.4310
4844.7598 158.3218 1539.5981 0.4253
4798.3691 155.0841 1529.3478 0.3913
4761.6577 147.0371 1521.2740 0.4275
4726.2539 138.7696 1513.4915 0.4043
4694.1240 129.1101 1506.4434 0.4977
4664.9941 118.1476 1500.0687 0.4761
4644.3086 102.5704 1495.5963 0.4382
4618.5713 90.3363 1489.9818 0.4038
4578.0059 87.5320 1481.0181 0.3391
3776.4402 3853.8782 1257.9647 0.0237
4623.1426 4275.6538 1436.8175 0.0810
4963.0654 4424.8467 1508.7562 0.3439
5007.6323 4419.3403 1518.3567 0.3638
5067.8164 4421.0259 1531.2600 0.3878
5142.6519 4429.1021 1547.2644 0.3994
5202.9771 4429.0601 1560.2097 0.4128
5258.5811 4425.9004 1572.1627 0.3642
5315.4766 4422.5684 1584.3939 0.3486
5366.2334 4415.5693 1595.3328 0.3436
5410.1123 4404.6938 1604.8219 0.3607
5447.5967 4390.3027 1612.9620 0.3570
5478.7222 4372.5449 1619.7607 0.3238
5518.1289 4357.9697 1628.3151 0.3325
5572.4238 4349.2544 1640.0247 0.3108
5705.3545 4373.1431 1668.3889 0.3668
5793.6743 4376.5425 1687.3182 0.1919
5832.6987 4358.4609 1695.8141 0.1975
5902.0449 4352.0552 1710.7378 0.2238
5951.7446 4336.8760 1721.5048 0.2852
6055.6196 4342.0918 1743.7599 0.2418
6706.2393 4555.0127 1881.9409 0.2141
7879.1655 4955.0024 2130.9436 0.0412
7697.2642 4839.1870 2092.6890 0.0984
7744.0752 4808.5981 2102.9402 0.0864
7763.4175 4767.5923 2107.3669 0.0862
7847.3511 4748.7471 2125.5044 0.1123
7937.9448 4730.9746 2145.0637 0.1238
8002.1504 4703.1079 2159.0291 0.1166
8024.0679 4660.5078 2164.0190 0.0830
8039.5034 4615.5073 2167.6340 0.0825
8035.4443 4564.1743 2167.1086 0.1040
8006.0474 4505.1333 2161.1978 0.0912
7979.3140 4447.2778 2155.8499 0.0879
7958.3579 4391.4600 2151.7288 0.0814
7934.9697 4335.2222 2147.0886 0.1251
7919.8940 4281.5991 2144.2141 0.1342
7907.6914 4228.9419 2141.9500 0.1405
7899.8340 4177.5791 2140.6091 0.1229
7893.1953 4126.6167 2139.5278 0.1033
7888.7578 4076.2754 2138.9146 0.1125
7894.0503 4028.3320 2140.3726 0.1241
7891.6143 3978.4739 2140.1853 0.1571
7895.0571 3929.9702 2141.2505 0.1636
7869.5957 3875.0039 2136.1567 0.1764
7872.1621 3826.3752 2137.0344 0.1806
7907.1304 3784.3960 2144.8206 0.1558
7939.9297 3741.4663 2152.1477 0.1145
7945.6084 3692.8208 2153.6936 0.1589
7931.4521 3640.3872 2151.0085 0.1443
7948.3701 3593.6851 2154.9529 0.1516
7987.6719 3550.5640 2163.6768 0.2159
8017.2729 3505.2681 2170.3337 0.1492
8042.9312 3458.9087 2176.1516 0.1460
8074.1553 3413.0010 2183.1609 0.1444
8100.3867 3365.9121 2189.1062 0.1776
8110.3003 3316.2058 2191.5679 0.1724
8126.4087 3267.1357 2195.3550 0.1967
8130.9243 3216.3992 2196.6650 0.1740
8138.2241 3165.8960 2198.5715 0.1434
8142.7529 3114.9673 2199.8860 0.1504
8153.2012 3064.5474 2202.4673 0.1543
8169.9795 3014.5481 2206.4043 0.1750
8188.1797 2964.4104 2210.6470 0.1798
8206.1045 2913.9683 2214.8325 0.1708
8225.0908 2863.3247 2219.2476 0.1383
8246.1719 2812.5234 2224.1133 0.1172
8246.1689 2760.1753 2224.4648 0.1243
8245.6797 2707.7791 2224.7124 0.1444
8258.0371 2655.9290 2227.7126 0.1787
8260.0107 2603.4980 2228.4890 0.1546
8236.9834 2550.2793 2223.9060 0.1486
8188.9731 2496.8081 2213.9634 0.2065
8190.1636 2444.7463 2214.5691 0.1451
8175.1382 2392.5137 2211.6965 0.0440
7910.2827 2340.2551 2155.2134 0.0753
7151.8643 2294.8655 1992.7727 0.0532
6737.1562 2255.6917 1904.0461 0.0753
6622.0981 2216.2642 1879.6213 0.0231
6404.7520 2181.3071 1833.2170 0.0322
5891.7148 2159.7795 1723.2715 0.0574
5699.6567 2132.0757 1682.2450 0.0366
5481.4854 2108.3994 1635.5876 0.0000
4568.1055 2127.0945 1439.4633 0.0348
4336.0771 2115.5283 1389.7510 0.5486
4360.4136 2089.1252 1395.1509 0.4320
4441.3599 2057.9453 1412.7307 0.0993
4469.8623 2030.0583 1419.0345 0.0003
4550.5103 1996.9313 1436.5631 0.0000
4853.5264 1940.4830 1501.9662 0.0000
4437.6484 1956.4398 1412.6173 0.1971
4077.1702 1972.0605 1335.1583 0.7315
3948.7939 1964.7308 1307.6600 0.5886
3908.8289 1947.8883 1299.1975 0.6051
3653.1667 1960.8695 1244.2485 0.3484
3577.6709 1951.7932 1228.1093 0.3603
2568.9778 2083.8516 1010.7692 0.0000
1993.0439 2162.3997 886.6536 0.9772
1987.1587 2155.4775 885.4371 0.9912
1997.3306 2145.8787 887.6844 0.9832
2000.5375 2137.3757 888.4298 0.9889
2098.3284 2111.2087 909.5904 0.0068
1997.4077 2122.0667 887.8612 0.4889
1985.3489 2116.5466 885.3108 0.9852
1970.4854 2111.7815 882.1532 0.9970
1949.4578 2108.5549 877.6628 0.9996
1939.8275 2103.0945 875.6330 0.9998
1931.6840 2097.4285 873.9236 0.9993
1925.2560 2091.4707 872.5844 0.9950
1931.3027 2082.5566 873.9418 0.9988
1947.4846 2071.0017 877.4921 0.9996
1957.5719 2060.7854 879.7253 0.9999
1971.7428 2049.3325 882.8433 0.9998
1972.2848 2041.3953 883.0129 0.9995
1981.2131 2031.0930 884.9982 0.9996
1985.3448 2022.0381 885.9457 0.9981
1983.8689 2014.5747 885.6792 0.9984
1987.0364 2005.7252 886.4185 0.9973
1993.3883 1995.8390 887.8480 0.9994
1995.2446 1987.2822 888.3038 0.9990
1996.4326 1978.9111 888.6153 0.9984
1996.8076 1970.7891 888.7502 0.9992
1994.5544 1963.5485 888.3156 0.9907
2010.0034 1950.2076 891.7203 0.9793
8170.9521 -236.3050 2228.4854 0.3744
8302.3105 -336.8960 2257.3503 0.2508
8221.4834 -361.3038 2240.1702 0.2234
8097.2627 -368.2563 2213.5605 0.1398
8071.1406 -410.9717 2208.2427 0.1135
8065.0581 -461.1473 2207.2751 0.0955
8109.3882 -531.2984 2217.2598 0.0790
8116.1562 -586.9157 2219.0859 0.0853
8122.4458 -642.4597 2220.8091 0.0678
8085.3550 -679.9199 2213.1023 0.0704
7995.9497 -694.5267 2194.0151 0.0845
6092.3560 79.9494 1780.3197 0.2135
5998.5278 83.2153 1760.1636 0.2558
5941.1113 71.4975 1747.9219 0.2289
5752.8413 120.3171 1707.1932 0.2256
5560.6055 173.7310 1665.5828 0.3210
5348.8545 239.1527 1619.7037 0.3023
5243.6846 256.6908 1597.0175 0.2925
5244.0469 224.5001 1597.3119 0.3150
5260.4097 184.3980 1601.0930 0.3040
5269.3721 147.7442 1603.2627 0.3077
5270.0142 115.1695 1603.6198 0.3301
5259.8882 88.1199 1601.6290 0.3032
5213.6040 80.1041 1591.7507 0.2884
5094.4331 111.3940 1565.9679 0.2872
5004.6572 128.6330 1546.5875 0.3780
4925.3818 141.4651 1529.4900 0.4248
4841.2607 158.1333 1511.3263 0.4385
4791.4722 156.8183 1500.6515 0.4572
4752.4639 150.1146 1492.3256 0.4321
4718.7822 140.9156 1485.1600 0.3912
4687.4751 130.8213 1478.5098 0.4793
4659.7383 119.0744 1472.6370 0.4523
4634.8872 106.0048 1467.3925 0.4708
4606.8491 95.2171 1461.4481 0.4041
4564.6899 93.4698 1452.4131 0.3096
3569.1106 3745.7852 1196.1660 0.0781
4422.8042 4173.0967 1370.7051 0.0264
4921.4355 4405.6147 1472.7623 0.2506
5000.4370 4417.8984 1489.0919 0.3466
5053.7822 4416.2090 1500.1831 0.3288
5122.8184 4421.5254 1514.4883 0.3681
5194.7783 4427.2954 1529.3976 0.3597
5251.2754 4424.6216 1541.1499 0.3368
5315.9575 4425.0269 1554.5826 0.3735
5367.5098 4418.3916 1565.3339 0.3675
5414.3784 4408.8721 1575.1310 0.3903
5449.3721 4393.3110 1582.5009 0.3092
5479.5059 4375.0820 1588.8788 0.3123
5518.0981 4360.1309 1596.9922 0.3060
5574.3198 4352.2412 1608.7214 0.3164
5689.0552 4368.4150 1632.4481 0.4106
5796.8457 4380.0723 1654.7614 0.1943
5826.6470 4358.1611 1661.0942 0.2055
5882.6880 4346.4185 1672.8110 0.2300
5919.3750 4326.1958 1680.5631 0.2995
6037.9888 4337.3950 1705.1273 0.2518
6673.8271 4545.0137 1835.8464 0.1519
7684.6147 4884.7056 2043.5867 0.0481
7653.4692 4825.7588 2037.5012 0.1081
7701.8003 4795.9976 2047.7340 0.0830
7711.3071 4751.7559 2049.9966 0.0843
7791.6143 4731.9985 2066.8062 0.1091
7901.6543 4721.2329 2089.7327 0.1169
7970.5776 4695.1719 2104.2185 0.1077
7991.5991 4652.4580 2108.8633 0.0775
8011.0679 4608.9321 2113.1907 0.0755
8009.2871 4558.4595 2113.1494 0.0918
7979.4219 4499.3989 2107.3308 0.1006
7954.5635 4442.2329 2102.5396 0.0834
7930.3003 4385.5669 2097.8689 0.1192
7909.0083 4330.0674 2093.8076 0.1190
7879.6172 4272.5957 2088.0771 0.1305
7862.1040 4218.7314 2084.7905 0.1399
7852.7598 4167.2461 2083.1848 0.1237
7854.6860 4118.7622 2083.9006 0.0962
7861.4771 4071.4451 2085.6194 0.1034
7869.2007 4024.2361 2087.5310 0.1134
7869.0615 3975.0449 2087.8228 0.1584
7877.8105 3927.8633 2089.9473 0.1490
7868.2588 3876.4851 2088.2979 0.1690
7876.5688 3829.0479 2090.3325 0.1807
7909.4785 3786.5696 2097.4451 0.1516
7970.1812 3749.1672 2110.2971 0.1028
7971.2393 3699.3665 2110.8416 0.1361
7958.3740 3646.9382 2108.5105 0.1269
7972.1411 3599.4360 2111.6797 0.1405
8008.5171 3555.6016 2119.5210 0.1227
8048.1670 3511.7688 2128.0420 0.1325
8094.1060 3468.3428 2137.8669 0.1111
8113.2051 3420.2009 2142.1477 0.1616
8134.3252 3372.0549 2146.8479 0.1955
8144.7563 3322.1284 2149.3396 0.1908
8146.4155 3270.8967 2150.0183 0.2024
8148.7090 3219.6960 2150.8284 0.1814
8156.6475 3169.0886 2152.8064 0.1581
8157.3101 3117.5603 2153.2795 0.1641
8158.6997 3066.0725 2153.9038 0.1616
8170.5767 3015.5251 2156.7000 0.1689
8193.4434 2965.7373 2161.7739 0.1749
8207.5537 2914.9041 2165.0356 0.1470
8228.5137 2864.3420 2169.7188 0.1410
8243.2852 2813.0542 2173.1211 0.1124
8246.6709 2760.8704 2174.1638 0.1591
8251.3057 2708.6792 2175.4668 0.1661
8270.6328 2657.0417 2179.8171 0.1932
8230.8311 2602.9360 2171.9023 0.1745
8161.1133 2548.4924 2157.7759 0.1450
8109.0923 2495.4182 2147.3164 0.0935
8091.1987 2443.5847 2143.9373 0.0629
7750.4321 2389.3801 2073.5088 0.1290
7232.4258 2339.8721 1966.2355 0.0644
6915.4272 2296.5044 1900.6737 0.0303
7187.5449 2249.7515 1957.4999 0.0193
6517.2349 2218.4863 1818.4725 0.0299
6496.4824 2178.7800 1814.4207 0.0387
6023.1113 2155.1697 1716.2498 0.0794
5934.9038 2122.1138 1698.1434 0.0022
4842.8760 2139.8022 1471.2010 0.0066
4372.5625 2138.0471 1373.5231 0.5842
4254.7217 2120.5962 1349.1598 0.6989
4183.0312 2101.5579 1334.3928 0.4974
4233.7935 2073.9810 1345.1162 0.0293
4353.7734 2039.7609 1370.2605 0.0006
4157.4233 2033.0521 1329.5198 0.1895
3980.6460 2027.2107 1292.8392 0.5220
3991.8416 2003.8162 1295.3170 0.6290
3992.4622 1981.4569 1295.5916 0.0818
4062.4204 1950.6675 1310.3232 0.0172
3706.9263 1973.5398 1236.3341 0.0000
3507.1316 1980.4003 1194.7897 0.0000
3345.6704 1984.6580 1161.2246 0.0001
2963.4292 2024.4026 1081.5698 0.0000
1992.4518 2162.3523 878.9880 0.9917
1971.5587 2157.8982 874.6774 0.9976
1983.3152 2148.1306 877.1829 0.9963
1996.4846 2137.9358 879.9848 0.9931
2025.9786 2124.5042 886.1985 0.6267
1992.9309 2122.7517 879.3455 0.9925
1981.4015 2117.1521 876.9872 0.9933
1979.5061 2109.7107 876.6420 0.9966
1964.7418 2105.0654 873.6055 0.9984
1961.6278 2098.0371 873.0044 0.9961
1947.6958 2093.5378 870.1398 0.9890
1906.9504 2095.5969 861.6632 0.0000
1995.4840 2066.6421 880.2411 0.2048
1972.0826 2064.5730 875.3940 0.9885
1982.3898 2054.1111 877.6031 0.9955
1984.4888 2045.6809 878.0938 0.9996
1986.0811 2037.3550 878.4789 0.9982
1989.4684 2028.4983 879.2401 0.9985
1995.0715 2018.9502 880.4661 0.9944
1991.8966 2011.9098 879.8525 0.9960
1992.0939 2003.8917 879.9457 0.9879
1992.8071 1995.7072 880.1471 0.9894
1995.8525 1986.7682 880.8380 0.9879
1998.8206 1977.8063 881.5129 0.9914
1997.0760 1970.3617 881.1989 0.9931
1997.8683 1962.0785 881.4175 0.9960
1996.2036 1954.6316 881.1202 0.9970
2337.7539 1825.7366 952.9036 0.0000
8180.7666 -295.4981 2180.3801 0.3694
8181.7417 -349.1930 2180.9324 0.3037
8149.4233 -390.4113 2174.4880 0.1345
8143.1963 -441.1791 2173.5251 0.1030
8125.5830 -487.4323 2170.1682 0.0891
8177.3257 -561.0486 2181.3948 0.0750
8209.0859 -627.3504 2188.4236 0.0740
8157.2944 -659.6708 2177.8767 0.0612
8222.0488 -740.1971 2191.8513 0.0471
8111.9521 -746.9864 2169.0269 0.1041
6013.0103 112.2818 1727.4562 0.2293
5973.7178 92.0257 1719.4266 0.2263
5950.9971 64.8846 1714.8844 0.2235
5791.7173 100.4339 1681.5685 0.2284
5583.8721 160.8545 1638.0031 0.3218
5432.1865 197.8445 1606.2552 0.3049
5274.6553 239.8562 1573.2606 0.2939
5270.5532 209.5740 1572.6056 0.2960
5296.9253 164.2942 1578.3783 0.3266
5296.5371 132.0175 1578.5079 0.3377
5290.3989 102.6547 1577.4243 0.3418
5248.7041 91.7089 1568.8351 0.3005
5178.9717 96.0337 1554.3228 0.3007
5076.2231 118.8939 1532.8319 0.3245
5007.3940 125.0127 1518.4955 0.3886
4931.0293 136.2477 1502.5605 0.3646
4843.9316 154.5334 1484.3501 0.4213
4785.8228 157.8567 1472.2584 0.4540
4746.5703 151.3248 1464.1479 0.4371
4714.2896 141.3526 1457.5078 0.4883
4680.5503 132.6965 1450.5559 0.4952
4657.4937 118.2264 1445.8611 0.4473
4626.7114 108.7021 1439.5293 0.4478
4602.9839 95.3551 1434.6877 0.3898
4566.2339 90.3213 1427.0872 0.2947
3402.8281 3659.2053 1145.2451 0.0856
4544.8584 4238.8521 1370.9413 0.0101
4920.3838 4407.2739 1445.2952 0.2522
5002.1846 4421.0034 1461.6362 0.3097
5040.2271 4411.6216 1469.3350 0.3508
5106.5479 4415.6968 1482.6282 0.3526
5172.4170 4418.6162 1495.8376 0.3347
5227.3130 4415.3267 1506.8828 0.3258
5305.0557 4422.0933 1522.4525 0.3727
5372.8003 4423.0938 1536.0510 0.3757
5417.1055 4412.3506 1545.0164 0.3965
5444.3550 4393.2461 1550.6089 0.3162
5484.5615 4379.5308 1558.7697 0.3327
5527.7139 4366.5342 1567.5177 0.3306
5584.7969 4358.9443 1579.0287 0.3256
5674.1553 4364.2710 1596.9406 0.3718
5793.1436 4380.7319 1620.7323 0.2294
5830.0518 4361.7505 1628.2640 0.2330
5865.9688 4341.8374 1635.6023 0.2477
5903.4829 4322.0410 1643.2609 0.3029
6018.9277 4332.1294 1666.3812 0.2759
6421.9551 4450.8491 1746.5709 0.1579
7542.0000 4833.8027 1969.0905 0.0964
7620.8965 4816.4458 1985.0442 0.1091
7654.0503 4781.3843 1991.9230 0.1018
7666.7456 4738.5674 1994.7422 0.0848
7760.2515 4723.7046 2013.6136 0.0820
7867.2671 4712.1196 2035.1779 0.0955
7916.5688 4679.7148 2045.2830 0.0830
7949.3345 4641.1836 2052.1057 0.0743
7975.5835 4600.0825 2057.6360 0.0725
7973.6230 4549.7534 2057.5591 0.0881
7952.0381 4493.4199 2053.5789 0.0898
7923.2275 4435.2056 2048.1599 0.1108
7904.5474 4380.3350 2044.7539 0.1193
7881.9419 4324.5854 2040.5656 0.1083
7844.5278 4265.0146 2033.4269 0.1140
7826.0942 4211.0938 2030.0643 0.1329
7806.2476 4157.0376 2026.4191 0.1408
7810.9048 4109.5356 2027.6534 0.1179
7828.4624 4065.1699 2031.4589 0.1135
7839.3730 4018.9211 2033.9412 0.1302
7844.9912 3971.2480 2035.3694 0.1684
7855.2236 3924.5288 2037.7186 0.1660
7852.5366 3874.7803 2037.4921 0.1759
7872.5859 3829.9258 2041.8011 0.1283
7908.0698 3787.9683 2049.1912 0.1052
7960.7856 3748.9397 2060.0237 0.1290
7968.9321 3700.5259 2061.9646 0.1270
7967.0308 3650.1030 2061.8999 0.1197
8004.4790 3606.7344 2069.6938 0.1436
8050.6553 3564.3142 2079.2339 0.1196
8099.7310 3521.6946 2089.3579 0.1257
8122.6060 3474.2195 2094.2507 0.1838
8145.5835 3426.4121 2099.1663 0.2172
8156.9907 3376.5930 2101.7705 0.2337
8169.5791 3326.7502 2104.6128 0.1987
8174.7100 3275.7395 2105.9644 0.1930
8170.7271 3223.5181 2105.4932 0.2323
8167.5137 3171.4185 2105.1758 0.2063
8170.2554 3119.9856 2106.0503 0.2060
8173.6694 3068.5581 2107.0596 0.1982
8175.4771 3016.9077 2107.7480 0.1446
8191.1572 2966.4119 2111.2146 0.1427
8208.6074 2915.8101 2115.0381 0.1623
8231.2129 2865.3096 2119.8958 0.1648
8247.7051 2814.0632 2123.5305 0.1573
8245.8164 2761.4888 2123.4822 0.2003
8252.9170 2709.3760 2125.2363 0.2053
8273.4189 2657.7271 2129.6785 0.2569
8219.1201 2603.0125 2119.1189 0.3062
8139.2129 2548.2942 2103.4158 0.2206
8140.2012 2496.5098 2103.9407 0.1835
8077.4634 2443.7156 2091.6741 0.0947
7495.5161 2387.5886 1975.1588 0.1805
6716.4023 2339.5959 1818.9967 0.0906
6918.5132 2296.6392 1859.8558 0.0795
6862.8105 2254.2200 1848.9365 0.0605
6710.8398 2214.5627 1818.6667 0.0612
6400.2178 2181.4731 1756.4952 0.0819
5439.4272 2175.5488 1563.5836 0.0062
5380.7324 2145.4080 1551.9860 0.0000
4712.0996 2146.1804 1417.7045 0.0401
