2947.8789 3490.2996 184.7329 0.0854
3015.0840 3512.7021 169.3022 0.1290
2953.2251 3463.1003 183.2945 0.1180
2990.5774 3468.2546 174.6652 0.3237
3075.8594 3498.5142 155.0973 0.6083
3097.4312 3493.8662 150.0582 0.6472
3112.2107 3485.3560 146.5670 0.6710
3142.3650 3484.5110 139.5642 0.6361
3177.7478 3485.8586 131.3641 0.6543
3215.9705 3488.0911 122.5115 0.5259
3250.5962 3487.9836 114.4765 0.5753
3288.6760 3489.0269 105.6485 0.5638
3324.8137 3488.5737 97.2602 0.6128
3354.5718 3484.5852 90.3264 0.5484
3383.6956 3479.8547 83.5344 0.5920
3413.6265 3475.0508 76.5546 0.5744
3440.7134 3468.5234 70.2220 0.5858
3470.2468 3462.6606 63.3268 0.5994
3507.3853 3459.6345 54.6875 0.5666
3541.1575 3454.6196 46.8149 0.5926
3568.1946 3446.2849 40.4808 0.5049
3583.9539 3432.9204 36.7270 0.5003
3586.9614 3414.1841 35.8928 0.4911
3588.0750 3394.6458 35.4923 0.4656
3567.0183 3366.4961 40.1732 0.4091
3528.5234 3332.0273 48.8544 0.3624
3498.4722 3301.2668 55.6035 0.3362
3475.4043 3273.4932 60.7538 0.2936
3489.9155 3259.4873 57.2849 0.3371
3540.1284 3257.7510 45.6214 0.3268
3552.5046 3242.2961 42.6373 0.3370
3561.4077 3225.4832 40.4491 0.3533
3588.0972 3214.3545 34.1755 0.3690
3601.6104 3198.5996 30.9253 0.3483
3597.6379 3177.1660 31.6912 0.3452
3592.0515 3155.2903 32.8282 0.3688
3577.9844 3130.9639 35.9153 0.3660
3507.1216 3090.3569 52.0621 0.3399
3460.2007 3057.5706 62.7106 0.2943
2910.4370 2887.0935 189.0319 0.0384
2293.0239 2706.7422 330.9781 0.9090
2275.4656 2691.7314 334.9430 0.9647
2265.7910 2678.9724 337.0949 0.9827
3336.7573 2931.3157 90.4346 0.3943
3335.5864 2912.7397 90.5711 0.4216
3332.4329 2893.7168 91.1645 0.4580
3323.8237 2873.5176 93.0150 0.5125
3321.5579 2854.8040 93.4047 0.5333
3320.5886 2836.3845 93.4956 0.5353
3318.9819 2817.8438 93.7334 0.5235
3323.3889 2800.4766 92.5845 0.4942
3329.6716 2783.3809 91.0024 0.4361
3339.9072 2766.8835 88.5074 0.4078
3352.0659 2750.5498 85.5674 0.3869
3352.1421 2732.0618 85.4152 0.3955
2622.9155 2600.6670 253.6616 0.0000
2147.7070 2517.6863 363.3205 0.9350
2109.2690 2502.8943 372.1317 0.9372
2099.1821 2492.4250 374.3959 0.9184
2101.1184 2483.6018 373.8825 0.9264
2094.1421 2473.7024 375.4292 0.8809
2072.2065 2462.2676 380.4357 0.9722
2055.1575 2451.6584 384.3144 0.9949
2051.9780 2442.6106 384.9863 0.9972
2051.9766 2433.8828 384.9231 0.9981
2053.7722 2425.2925 384.4440 0.9973
2060.0044 2416.9880 382.9375 0.9947
2066.2825 2408.5876 381.4197 0.9909
2068.2356 2399.8442 380.9029 0.9916
2069.1196 2391.0149 380.6336 0.9920
2071.0911 2382.2124 380.1120 0.9888
2072.1133 2373.3440 379.8104 0.9871
2071.9094 2364.4241 379.7927 0.9908
2073.3657 2355.5334 379.3902 0.9853
2075.1841 2346.6196 378.9034 0.9789
2075.7361 2337.6707 378.7102 0.9824
2076.8206 2328.7058 378.3933 0.9770
2077.6072 2319.7246 378.1455 0.9714
2078.3284 2310.7278 377.9127 0.9663
2080.4153 2301.6782 377.3626 0.9566
2082.5676 2292.5903 376.7971 0.9396
2085.3103 2283.4397 376.0942 0.8831
2088.3250 2274.2290 375.3277 0.8902
2090.9285 2264.9919 374.6564 0.8938
2090.8977 2255.8838 374.5973 0.8946
2091.2612 2246.7427 374.4464 0.8928
2091.6357 2237.5911 374.2929 0.8880
2090.5784 2228.5562 374.4725 0.8877
2089.3730 2219.5474 374.6866 0.8950
2089.4373 2210.4211 374.6053 0.9064
2089.5225 2201.2864 374.5191 0.9152
2086.1841 2192.5557 375.2302 0.9114
2079.4673 2184.3008 376.7286 0.9366
2072.3704 2176.1965 378.3163 0.9475
2064.7156 2168.2769 380.0349 0.9591
2060.0100 2160.0271 381.0667 0.9678
2063.1331 2150.6094 380.2736 0.9442
2069.9336 2140.5295 378.6223 0.9080
2074.4500 2130.7371 377.5031 0.8764
2071.9268 2122.1448 378.0260 0.8318
2040.6959 2119.0081 385.2498 0.8887
2007.1421 2116.8049 393.0193 0.9681
1989.8922 2111.7861 396.9852 0.9995
1971.4508 2107.2822 401.2314 1.0000
1962.1763 2101.0459 403.3380 1.0000
1958.8544 2093.5947 404.0545 1.0000
1959.3411 2085.2952 403.8812 1.0000
1962.0061 2076.4556 403.1986 1.0000
1964.7206 2067.5579 402.5039 0.9999
1968.0615 2058.4521 401.6625 0.9998
1972.1559 2049.0901 400.6444 0.9994
1978.6464 2039.0045 399.0650 0.9981
1988.3689 2027.9034 396.7283 0.9943
3620.0581 1547.1561 14.6300 0.1846
3694.4907 1503.9110 -2.9552 0.3263
3621.1426 1504.5714 14.0686 0.2700
3600.8467 1489.7687 18.6701 0.2764
3626.6604 1460.4907 12.4676 0.2912
3630.7751 1437.9254 11.3487 0.3191
3648.4243 1410.7367 7.0557 0.3552
3669.1150 1382.2166 2.0473 0.3886
3676.6453 1357.9922 0.1239 0.4042
3669.0046 1339.0941 1.7593 0.3943
3660.8921 1320.4780 3.5062 0.3816
3662.1677 1298.4563 3.0499 0.3806
3662.4297 1276.7926 2.8316 0.3813
3671.5095 1251.6687 0.5420 0.3946
3667.7820 1231.4972 1.2601 0.4038
3654.4399 1215.2804 4.2379 0.3864
3648.3525 1196.2571 5.5120 0.3630
3622.7903 1185.5377 11.3652 0.3790
3606.3611 1171.2825 15.0735 0.4106
3613.2227 1147.0796 13.3054 0.4181
3613.8918 1125.5183 12.9932 0.4389
3603.6594 1108.8784 15.2464 0.4397
3599.8865 1089.4099 15.9802 0.3920
3601.9858 1067.2354 15.3317 0.3567
3599.3394 1047.2809 15.8006 0.3362
3599.6057 1025.9458 15.5836 0.2979
3619.2424 995.0533 10.8026 0.2616
3636.1665 965.1988 6.6585 0.2540
3647.2007 938.0621 3.9007 0.2976
3664.0735 907.7271 -0.2350 0.3605
3673.3992 881.0712 -2.5927 0.4069
3648.8308 872.2910 3.0440 0.4440
3613.9346 869.4640 11.1205 0.4293
3594.9956 858.4358 15.4346 0.4356
3596.1377 836.5363 15.0103 0.4394
3611.0479 806.8485 11.3347 0.4263
3622.8174 778.7098 8.3990 0.4063
3625.6389 755.5596 7.5760 0.4482
3638.4878 726.4645 4.3830 0.4353
3665.6135 688.6573 -2.1861 0.3781
3689.6877 652.2510 -8.0369 0.3570
3699.3445 624.2625 -10.4812 0.3915
3697.6621 603.1291 -10.2446 0.4071
3713.2041 571.2131 -14.0830 0.3885
3711.4961 549.9915 -13.8411 0.3121
3696.3694 537.4115 -10.4227 0.2644
3692.5110 517.7279 -9.6707 0.2101
2937.7520 3485.8721 171.4186 0.0826
3015.8875 3514.4766 152.8934 0.1269
2942.7393 3458.5962 170.0173 0.1231
2986.8621 3467.5142 159.5017 0.3473
3073.3960 3498.5076 138.9802 0.6339
3096.2825 3494.5688 133.4614 0.6497
3113.0566 3487.0984 129.3820 0.6693
3145.0059 3487.1702 121.7197 0.6406
3178.0574 3487.3206 113.7936 0.6571
3212.1262 3487.4812 105.6236 0.5421
3244.2949 3486.1958 97.8985 0.5915
3282.7805 3487.4849 88.6776 0.5617
3320.2446 3487.7090 79.6938 0.6057
3349.0991 3483.3271 72.7403 0.5399
3374.5754 3476.9480 66.5820 0.5855
3401.2964 3470.7483 60.1264 0.5839
3426.5308 3463.4788 54.0195 0.5638
3456.5850 3457.9453 46.7695 0.5893
3488.4543 3452.7407 39.0867 0.5660
3514.5496 3444.6006 32.7667 0.5748
3526.1306 3430.0034 29.8793 0.5842
3523.3401 3409.3320 30.3931 0.5518
3514.5039 3386.2588 32.3389 0.5097
3497.0227 3359.8918 36.3334 0.4663
3474.2786 3331.7354 41.5767 0.4132
3448.8022 3302.8706 47.4699 0.4156
3429.2529 3276.5859 51.9611 0.4050
3429.0598 3257.6553 51.8650 0.4071
3439.9875 3242.6985 49.1316 0.4017
3454.9575 3228.9858 45.4380 0.3920
3464.2771 3213.1028 43.0832 0.3904
3477.6882 3198.4446 39.7564 0.3817
3501.5208 3186.9941 33.9542 0.4093
3505.9370 3168.9551 32.7593 0.3951
3493.3474 3145.5176 35.6026 0.4060
3488.7078 3124.6887 36.5588 0.4115
3477.2590 3101.8906 39.1332 0.3406
3382.5811 3055.0735 61.4892 0.2394
3228.8555 2992.9551 97.8922 0.0963
2384.6208 2742.8750 298.4962 0.5723
2297.0718 2708.2742 319.2341 0.8899
2280.0999 2693.3699 323.1927 0.9512
2351.9644 2701.1917 306.0152 0.2660
3348.4475 2934.9102 68.7722 0.4276
3345.9216 2915.9041 69.2351 0.4530
3336.7021 2895.3848 71.2920 0.4799
3324.9150 2874.4233 73.9615 0.5273
3317.9224 2854.6631 75.4900 0.5502
3314.2634 2835.6929 76.2249 0.5462
3312.5654 2817.1614 76.4928 0.5200
3313.5466 2799.1636 76.1221 0.4828
3313.7698 2781.0022 75.9320 0.4512
3314.2026 2762.8657 75.6918 0.4242
3318.7156 2745.4080 74.4781 0.4029
3324.9231 2728.1489 72.8595 0.3901
3322.8679 2709.5068 73.2122 0.4163
3325.7742 2691.6187 72.3806 0.4257
3326.5366 2673.3774 72.0606 0.4486
3128.5481 2628.8218 119.2119 0.1213
2105.2207 2484.3159 363.5642 0.9663
2103.1501 2474.9487 363.9904 0.9662
2083.8091 2463.7168 368.5448 0.9389
2062.6677 2452.5901 373.5317 0.9815
2056.5112 2443.1951 374.9376 0.9909
2056.8345 2434.4512 374.7944 0.9951
2059.7957 2425.9072 374.0199 0.9958
2066.9902 2417.6172 372.2320 0.9906
2074.5876 2409.2390 370.3468 0.9786
2077.2046 2400.4604 369.6531 0.9763
2077.2715 2391.5137 369.5698 0.9731
2077.4426 2382.5657 369.4614 0.9658
2077.4890 2373.6064 369.3829 0.9651
2077.4922 2364.6414 369.3148 0.9704
2079.7188 2355.7124 368.7136 0.9523
2081.0461 2346.7358 368.3277 0.9421
2080.6658 2337.7290 368.3511 0.9480
2081.4873 2328.7188 368.0864 0.9416
2081.9983 2319.6951 367.8960 0.9399
2083.6384 2310.6365 367.4345 0.9233
2086.3323 2301.5205 366.7198 0.8981
2087.6394 2292.4070 366.3377 0.9071
2089.4651 2283.2468 365.8310 0.9068
2091.6956 2274.0342 365.2268 0.9050
2092.8545 2264.8452 364.8797 0.9031
2093.1877 2255.6885 364.7309 0.9039
2094.0134 2246.4863 364.4637 0.9042
2093.6831 2237.3604 364.4743 0.8961
2092.0356 2228.3525 364.8017 0.8919
2091.0386 2219.3027 364.9727 0.9006
2090.8752 2210.1772 364.9432 0.9140
2089.7246 2201.1597 365.1515 0.9211
2084.5356 2192.6389 366.3319 0.9083
2077.2378 2184.4617 368.0208 0.9374
2070.9402 2176.2576 369.4694 0.9494
2067.3923 2167.7539 370.2565 0.9573
2068.5361 2158.5947 369.9133 0.9505
2075.1221 2148.5535 368.2581 0.9060
2079.7234 2138.7354 367.0807 0.8590
2082.6516 2129.1323 366.3061 0.8761
2084.7441 2119.6306 365.7328 0.8531
2072.7849 2112.7478 368.5494 0.8131
2018.7391 2114.3242 381.5239 0.9165
1991.1487 2111.3240 388.1187 0.9974
1974.9076 2106.3376 391.9765 1.0000
1964.2429 2100.3730 394.4895 1.0000
1958.4286 2093.4651 395.8321 1.0000
1957.4116 2085.5139 396.0162 1.0000
1959.3171 2076.8640 395.4942 1.0000
1961.7599 2068.0459 394.8419 0.9999
1964.8795 2059.0103 394.0257 0.9998
1968.1261 2049.8892 393.1785 0.9996
1973.7273 2040.0677 391.7612 0.9985
1982.5872 2029.2363 389.5548 0.9961
3474.2053 1588.6479 28.4855 0.0901
3580.5200 1537.0066 2.5982 0.2742
3493.5569 1542.7084 23.4986 0.2338
3475.8777 1528.0626 27.6287 0.2733
3507.0103 1498.0201 19.9359 0.3353
3521.7922 1472.8564 16.2012 0.3649
3534.0312 1448.3081 13.0812 0.3799
3552.3689 1421.4596 8.4810 0.3998
3560.5093 1397.9049 6.3515 0.4166
3553.4529 1379.6819 7.9069 0.4032
3546.0920 1361.6713 9.5369 0.3840
3543.9065 1341.8220 9.9118 0.3747
3529.1125 1326.8302 13.3473 0.3749
3537.1216 1303.1406 11.2482 0.3894
3544.2622 1279.6621 9.3591 0.4020
3541.3525 1260.1500 9.9102 0.4207
3542.0735 1239.1685 9.5794 0.4372
3544.7544 1217.3374 8.7723 0.4474
3552.2432 1193.3854 6.7960 0.4414
3562.5007 1168.0924 4.1456 0.4285
3561.3687 1147.7085 4.2638 0.4411
3544.1338 1134.6404 8.2992 0.4355
3508.0249 1130.5476 16.9290 0.4115
3481.9500 1122.3003 23.1208 0.3984
3468.3096 1108.5168 26.2888 0.4032
3458.1682 1093.2396 28.6062 0.3845
3462.0576 1071.1931 27.5076 0.3719
3474.5916 1044.7437 24.3024 0.3491
3476.4722 1023.5090 23.6917 0.3562
3523.5078 978.8978 12.0750 0.3750
3564.4595 936.7271 1.9358 0.3957
3558.3262 918.9771 3.2734 0.4356
3543.2224 906.1624 6.7996 0.4621
3538.8594 887.6860 7.7071 0.4731
3546.9041 862.3660 5.5872 0.4772
3555.7751 836.4420 3.2645 0.4424
3553.2673 816.8778 3.7189 0.4206
3543.4324 801.5931 5.9628 0.4152
3541.0264 782.0860 6.3932 0.4062
3533.8247 765.4642 7.9954 0.4101
3546.8777 736.7172 4.6486 0.4087
3552.2375 712.4586 3.1806 0.3773
3531.1863 704.4706 8.1696 0.3675
3529.1660 684.8627 8.5066 0.3355
3495.6514 685.2930 16.5482 0.3290
3469.5393 681.4818 22.7824 0.3532
3494.5154 644.7953 16.5161 0.2821
2928.0996 3481.7031 158.1112 0.0723
3008.7151 3511.7981 138.3785 0.1134
2944.4558 3460.8103 153.8979 0.1219
2994.0833 3472.7217 141.6989 0.3570
3070.6387 3498.3433 122.9370 0.6239
3090.8525 3493.0073 117.8891 0.6252
3110.4153 3487.0249 112.9975 0.6458
3141.0566 3486.4451 105.4039 0.6218
3175.0833 3487.1204 96.9816 0.6499
3208.4700 3486.9644 88.7112 0.5617
3241.9292 3486.3411 80.4194 0.6096
3278.4417 3486.6943 71.3789 0.5578
3314.8738 3486.4590 62.3537 0.5943
3343.5476 3482.0291 55.2175 0.5224
3365.3164 3473.9705 49.7633 0.5708
3386.7417 3465.4241 44.3904 0.5795
3410.5337 3457.6099 38.4371 0.5649
3436.6548 3450.4590 31.9120 0.5661
3457.7454 3440.7332 26.6129 0.5781
3469.4609 3426.6963 23.6022 0.5743
3469.8503 3407.7422 23.3586 0.5704
3462.0337 3385.4050 25.1210 0.5457
3454.1909 3363.1641 26.8908 0.5021
3440.1851 3338.5930 30.1689 0.4738
3428.5378 3315.1372 32.8714 0.4610
3419.8416 3292.9697 34.8532 0.4603
3412.1375 3271.2939 36.5930 0.4548
3417.5015 3254.5034 35.1340 0.4629
3430.0879 3240.2122 31.9057 0.4708
3437.0171 3223.7388 30.0616 0.4757
3439.4175 3205.5979 29.3262 0.4836
3443.9487 3188.1279 28.0683 0.4815
3450.3213 3171.1855 26.3583 0.4660
3441.7439 3149.3418 28.3131 0.4470
3428.3447 3126.1064 31.4513 0.4513
3423.8345 3105.7817 32.4105 0.4316
3408.6748 3082.3384 35.9831 0.3945
3273.9753 3024.3411 68.8945 0.2160
2824.0610 2879.0334 179.1987 0.0500
2313.4390 2723.7283 304.4610 0.5532
2299.8701 2709.4751 307.7111 0.8416
2284.2761 2694.8926 311.4601 0.9265
3308.7571 2944.0017 59.6559 0.3237
3354.6782 2937.1714 48.2294 0.4472
3348.4219 2917.2092 49.6240 0.4753
3338.2798 2896.4358 51.9745 0.5021
3327.7581 2875.7222 54.4197 0.5105
3317.4185 2855.1973 56.8211 0.5630
3310.0430 2835.4370 58.4944 0.5534
3304.9302 2816.2327 59.6116 0.5175
3299.6353 2797.0618 60.7741 0.4778
3296.7571 2778.4109 61.3421 0.4526
3297.1597 2760.3782 61.1024 0.4354
3300.9983 2742.9158 60.0160 0.4233
3307.8713 2725.8811 58.1814 0.4298
3311.1787 2708.1799 57.2248 0.4711
3313.9185 2690.3364 56.4076 0.4997
3315.8071 2672.3232 55.8000 0.4878
3323.4280 2655.0327 53.7782 0.4153
3340.2119 2638.7615 49.4949 0.3833
3229.8757 2607.3149 76.5783 0.2107
2887.3933 2552.0642 160.9736 0.0004
2450.2134 2492.3357 268.7885 0.0000
2071.1384 2444.7346 362.3063 0.9648
2064.8430 2435.2952 363.7922 0.9819
2067.7271 2426.6748 363.0110 0.9771
2074.4194 2418.2798 361.2883 0.9564
2080.4807 2409.7383 359.7207 0.9428
2081.8413 2400.8342 359.3145 0.9473
2081.9963 2391.8469 359.2063 0.9382
2081.7417 2382.8354 359.1994 0.9306
2081.4573 2373.8228 359.1999 0.9301
2082.3020 2364.8391 358.9209 0.9260
2085.2000 2355.8765 358.1335 0.8725
2085.7258 2346.8394 357.9331 0.8746
2085.2661 2337.7874 357.9767 0.8735
2086.4856 2328.7300 357.6042 0.8846
2087.2598 2319.6553 357.3422 0.9011
2089.0664 2310.5437 356.8239 0.9166
2091.2971 2301.3887 356.2003 0.9286
2092.0488 2292.2468 355.9431 0.9317
2093.3059 2283.0674 355.5604 0.9261
2094.8801 2273.8489 355.0990 0.9179
2096.1592 2264.6182 354.7106 0.9144
2097.3174 2255.3721 354.3518 0.9185
2097.9634 2246.1409 354.1201 0.9220
2097.1221 2237.0164 354.2576 0.9170
2095.3574 2227.9829 354.6246 0.9132
2093.9226 2218.9395 354.9097 0.9175
2092.3269 2209.9312 355.2350 0.9257
2089.4519 2201.0859 355.8784 0.9202
2083.1963 2192.6853 357.3625 0.8906
2075.5400 2184.5549 359.1956 0.9178
2071.3584 2176.0691 360.1654 0.9278
2071.7280 2166.9932 360.0034 0.9272
2076.4587 2157.2507 358.7561 0.9030
2084.2539 2146.9463 356.7453 0.8962
2087.0120 2137.3530 355.9877 0.9255
2088.8342 2127.8750 355.4628 0.9381
2092.4741 2118.0347 354.4848 0.9374
2092.4771 2108.8218 354.4126 0.9044
2063.0317 2105.4019 361.6789 0.8219
2001.4816 2109.0034 376.9513 0.9509
1983.8239 2104.2322 381.2876 0.9992
1967.3939 2099.4602 385.3199 1.0000
1957.9728 2093.3420 387.6057 1.0000
1955.9801 2085.6157 388.0392 1.0000
1957.9514 2076.9512 387.4838 1.0000
1960.6559 2068.0684 386.7450 0.9999
1963.2610 2059.1650 386.0306 0.9999
1964.9528 2050.4609 385.5440 0.9999
1969.1819 2041.0302 384.4232 0.9996
1977.2881 2030.4353 382.3333 0.9983
3294.0745 1640.1619 53.1669 0.0924
3440.0469 1578.0596 16.5309 0.2465
3379.6685 1576.7344 31.4749 0.2590
3378.8472 1557.6763 31.5303 0.3007
3401.4438 1531.0996 25.7272 0.3220
3416.2871 1506.7123 21.8615 0.3333
3418.0818 1486.4784 21.2599 0.3252
3416.8159 1467.2616 21.4242 0.3328
3428.8545 1443.3662 18.2570 0.4353
3426.7053 1424.3842 18.6418 0.4273
3421.8333 1406.4283 19.7091 0.3702
3416.2170 1388.8187 20.9633 0.3943
3411.9211 1370.7812 21.8873 0.4144
3422.0334 1347.1597 19.1992 0.4551
3437.6060 1321.1896 15.1406 0.4779
3454.0605 1294.6067 10.8588 0.4907
3468.8911 1268.4301 6.9823 0.4942
3479.1785 1243.9324 4.2442 0.4825
3490.4353 1218.8456 1.2613 0.4674
3497.9973 1195.1926 -0.7953 0.4537
3486.7476 1179.8101 1.8715 0.4429
3461.9604 1170.7444 7.9403 0.4501
3428.2109 1166.2014 16.2639 0.4485
3411.2083 1154.3075 20.3827 0.4381
3407.7512 1136.1980 21.0983 0.4446
3397.5186 1121.4248 23.5179 0.4326
3385.7456 1107.5640 26.3262 0.4324
3383.9915 1088.8538 26.6153 0.4289
3404.5891 1058.7744 21.2802 0.4003
3425.8569 1028.0139 15.7738 0.4127
3445.3557 997.8367 10.7100 0.4275
3465.1074 967.2070 5.5802 0.4466
3473.7241 942.2798 3.2524 0.4738
3484.2119 916.1797 0.4522 0.4997
3486.0095 894.7427 -0.1595 0.5212
3465.1641 886.0558 4.9359 0.5138
3436.3367 882.2605 12.0462 0.4889
3419.8940 871.7214 16.0369 0.4749
3415.9038 854.1038 16.8883 0.4846
3414.2427 835.1506 17.1525 0.4901
3418.0823 812.8895 16.0287 0.4839
3420.6025 791.3652 15.2373 0.4565
3407.0454 779.7641 18.5050 0.4263
3393.6482 768.2682 21.7339 0.4051
3376.8389 759.1467 25.8263 0.4213
3370.3914 743.6080 27.3025 0.4056
3383.8340 715.1915 23.7525 0.3375
2966.4775 3504.7488 132.8644 0.0587
3058.7437 3541.1130 109.5796 0.1797
2980.6938 3482.0864 129.0503 0.1020
2975.9644 3464.1396 130.1150 0.2033
3051.2292 3489.2317 111.0841 0.4833
3078.8350 3487.9514 104.0198 0.5778
3101.4050 3483.6238 98.2180 0.6010
3134.8206 3484.5400 89.6869 0.5916
3172.8562 3487.2991 79.9900 0.6281
3207.7065 3487.8926 71.0897 0.5693
3242.9744 3488.1672 62.0801 0.6169
3279.0173 3488.2864 52.8713 0.5587
3310.5217 3485.6934 44.8004 0.5895
3337.2126 3480.3591 37.9375 0.5819
3355.7058 3470.8232 33.1356 0.5594
3371.4990 3459.7734 29.0115 0.5678
3387.4651 3448.5576 24.8420 0.5623
3403.3665 3437.0671 20.6868 0.5412
3416.9182 3424.3125 17.1218 0.5244
3425.2942 3409.1436 14.8599 0.5347
3422.5547 3389.1892 15.4001 0.5312
3412.2700 3366.1663 17.8436 0.5055
3403.6401 3343.9551 19.8708 0.4706
3395.4380 3322.0332 21.7910 0.4688
3389.3789 3301.0579 23.1712 0.4665
3389.4712 3282.5088 22.9990 0.4693
3392.4370 3265.0232 22.1010 0.4718
3397.6416 3248.3044 20.6372 0.4733
3402.9851 3231.5486 19.1376 0.4637
3407.1360 3214.2852 17.9386 0.4914
3405.7898 3195.0610 18.1285 0.5018
3406.6587 3176.5928 17.7585 0.5028
3406.4753 3157.7571 17.6545 0.4827
3393.7898 3134.8987 20.7128 0.4643
3383.2517 3112.8953 23.2292 0.4656
3379.7344 3093.1917 23.9701 0.4192
3364.1699 3069.9329 27.7609 0.3643
3249.1086 3017.9224 56.7450 0.1909
2725.2747 2851.6580 189.2648 0.0001
2315.9358 2724.8853 292.8448 0.5639
2300.6868 2710.1460 296.6232 0.8026
2286.5574 2695.9236 300.1196 0.9062
3364.4502 2958.8652 26.7994 0.3996
3359.4324 2939.0745 27.9230 0.4534
3347.0686 2917.5979 30.9102 0.4804
3335.8755 2896.5696 33.6017 0.5102
3328.2229 2876.4924 35.3963 0.5256
3318.1160 2855.9924 37.8146 0.5600
3308.9766 2835.8372 39.9885 0.5467
3301.9531 2816.2368 41.6261 0.5145
3294.7800 2796.7048 43.3025 0.4855
3290.5820 2777.8254 44.2240 0.4725
3292.9397 2760.1682 43.4800 0.4682
3299.6655 2743.2117 41.6256 0.4689
3306.9863 2726.2417 39.6189 0.4700
3309.3191 2708.3772 38.8798 0.4831
3304.9846 2689.4829 39.8360 0.4969
3306.9932 2671.5352 39.1789 0.4934
3318.6663 2654.8301 36.0623 0.4468
3331.9465 2638.1404 32.5352 0.4458
3346.5986 2621.4014 28.6571 0.4296
3368.6196 2605.2402 22.9008 0.4061
3386.6370 2588.3262 18.1614 0.3139
2539.1831 2489.2009 233.9116 0.0000
2073.2793 2436.1787 352.5362 0.9292
2074.0583 2427.3176 352.2661 0.9487
2080.3132 2418.8345 350.5998 0.9272
2084.6555 2410.1284 349.4206 0.9146
2085.6030 2401.1597 349.1065 0.8927
2085.0242 2392.0977 349.1819 0.8806
2083.3892 2382.9966 349.5268 0.9057
2082.4182 2373.9382 349.7023 0.9052
2083.8137 2364.9521 349.2737 0.8595
2086.4780 2355.9639 348.5208 0.8732
2086.8950 2346.9060 348.3417 0.8736
2086.8315 2337.8364 348.2853 0.8691
2088.7485 2328.7544 347.7227 0.8835
2090.5920 2319.6394 347.1786 0.9090
2092.3850 2310.4927 346.6471 0.9297
2093.6790 2301.3276 346.2431 0.9393
2094.1306 2292.1687 346.0543 0.9391
2095.2085 2282.9709 345.7052 0.9319
2097.2908 2273.7017 345.0989 0.9242
2100.0491 2264.3567 344.3192 0.9242
2101.6296 2255.0427 343.8407 0.9296
2101.0581 2245.8584 343.9132 0.9326
2099.4631 2236.7612 344.2478 0.9302
2097.8118 2227.6895 344.5971 0.9300
2095.4551 2218.7068 345.1273 0.9315
2091.6582 2209.9062 346.0270 0.9278
2087.5950 2201.1897 346.9955 0.9095
2081.9612 2192.7192 348.3671 0.8714
2076.0618 2184.3655 349.8076 0.8855
2075.1531 2175.4236 349.9681 0.8856
2078.5027 2165.8826 349.0359 0.8490
2084.4766 2155.8901 347.4293 0.8935
2092.1997 2145.5239 345.3728 0.9330
2095.3057 2135.8008 344.5013 0.9550
2098.5522 2126.0010 343.5932 0.9637
2103.7324 2115.7952 342.1877 0.9619
2107.6338 2105.7468 341.1103 0.9517
2097.2822 2098.4419 343.6969 0.8793
2030.1317 2102.9270 360.8913 0.8574
1992.3688 2102.2014 370.5349 0.9933
1973.4091 2097.9148 375.3452 0.9999
1957.7068 2093.1755 379.3195 1.0000
1954.2042 2085.7986 380.1554 1.0000
1956.7721 2076.9932 379.4287 1.0000
1959.4185 2068.1243 378.6814 0.9999
1961.8363 2059.2698 377.9926 0.9999
1962.9410 2050.7236 377.6419 0.9999
1965.5436 2041.7451 376.9050 0.9998
1971.3046 2031.8297 375.3535 0.9994
3196.6077 1667.7786 59.3429 0.1344
3351.6565 1603.6671 19.2106 0.2183
3326.0005 1592.4059 25.6761 0.2807
3321.4971 1574.9003 26.6866 0.3214
3335.3696 1551.5477 22.9547 0.3412
3345.0442 1529.3521 20.3048 0.3420
3346.0762 1509.9094 19.8853 0.3387
3345.4355 1491.0187 19.8976 0.3434
3347.4780 1471.1818 19.2168 0.3565
3346.9717 1452.2229 19.1943 0.3716
3349.1023 1432.2913 18.4902 0.4436
3349.3975 1413.0074 18.2603 0.4709
3351.6628 1392.9529 17.5207 0.4774
3360.2710 1370.3676 15.1402 0.4806
3369.6882 1347.3146 12.5491 0.4939
3378.2544 1324.4509 10.1771 0.5020
3385.7412 1301.8922 8.0833 0.4866
3392.3660 1279.5712 6.2117 0.4581
3395.9460 1258.4493 5.1277 0.4315
3398.3569 1237.7750 4.3459 0.4207
3394.4297 1219.8859 5.2062 0.4294
3388.1287 1203.1285 6.6820 0.4457
3381.4915 1186.6166 8.2456 0.4740
3379.9805 1167.7875 8.4809 0.5034
3378.1313 1149.1342 8.8039 0.5174
3364.3662 1136.2955 12.2184 0.4969
3349.1572 1124.3784 16.0091 0.4605
3350.2783 1104.4923 15.5633 0.4567
3364.0903 1078.1071 11.8226 0.4530
3372.1155 1054.4913 9.5828 0.4572
3375.8970 1032.9701 8.4441 0.4455
3384.8074 1008.6423 5.9724 0.4400
3392.7090 984.7101 3.7616 0.4567
3405.8091 957.7871 0.1985 0.5209
3404.7695 938.5286 0.3099 0.4835
3379.1133 933.1949 6.8229 0.4783
3354.4526 927.6873 13.0802 0.4474
3347.2520 912.4134 14.7977 0.4533
3350.3694 891.1647 13.8309 0.4854
3355.1348 868.8729 12.4346 0.5076
3355.9592 848.8807 12.0637 0.5030
3353.8684 830.6526 12.4520 0.4740
3345.8438 816.1330 14.3861 0.4644
3338.5042 801.3008 16.1428 0.4663
3331.1282 786.5993 17.9097 0.4329
3324.6050 771.4554 19.4552 0.4111
3333.9192 746.0674 16.8718 0.3755
2967.8025 3506.8203 116.5772 0.0490
3061.2646 3543.8867 92.2665 0.1748
2991.8093 3489.5264 110.1112 0.1404
2985.2053 3470.4558 111.6932 0.3100
3052.2668 3491.0972 94.2004 0.5547
3069.4446 3484.2776 89.6196 0.5451
3094.2927 3481.2073 83.0496 0.5587
3125.8647 3481.2283 74.7340 0.5436
3168.3647 3486.3269 63.5821 0.5944
3209.5520 3490.1294 52.7652 0.5710
3246.6289 3491.2849 43.0092 0.6195
3280.2302 3490.1921 34.1499 0.5580
3307.3560 3485.4932 26.9665 0.5823
3329.1064 3477.8506 21.1745 0.5809
3343.3931 3466.4150 17.3172 0.5335
3350.0850 3451.2942 15.4297 0.5323
3354.6194 3435.0972 14.1016 0.5252
3360.5217 3419.4272 12.4176 0.5214
3368.4688 3404.5476 10.2015 0.5163
3376.2014 3389.4495 8.0402 0.5109
3376.2571 3371.0112 7.8732 0.5165
3368.9260 3349.5242 9.6267 0.5134
3362.8843 3328.6582 11.0457 0.5030
3360.9126 3309.4883 11.4067 0.5001
3361.3530 3291.2773 11.1403 0.4997
3364.1472 3273.9485 10.2612 0.5043
3368.5540 3257.1736 8.9620 0.5076
3372.2639 3240.0676 7.8436 0.5106
3373.7458 3222.0977 7.3048 0.5023
3374.5334 3203.8523 6.9467 0.4952
3371.0984 3184.1333 7.6886 0.5029
3364.8477 3163.5088 9.1646 0.5172
3360.2649 3143.5188 10.2066 0.5149
3351.8335 3122.3506 12.2525 0.4925
3346.0684 3102.1379 13.6040 0.4759
3343.5989 3083.0137 14.0965 0.4289
3329.5493 3060.4541 17.6107 0.3685
3315.3567 3038.0554 21.1640 0.3622
3191.9438 2984.8369 53.2300 0.2013
2332.5754 2729.9556 277.4731 0.7053
2309.5010 2712.9700 283.4104 0.6427
2368.9148 2717.8940 267.8021 0.4412
3365.2058 2959.8145 7.3881 0.3783
3361.2249 2940.2522 8.2751 0.4489
3341.0698 2916.8779 13.3906 0.4696
3328.6228 2895.5815 16.4931 0.5012
3323.4714 2876.0974 17.6890 0.5197
3315.9368 2856.1667 19.5090 0.5502
3308.8169 2836.4277 21.2213 0.5356
3300.0630 2816.4592 23.3620 0.5086
3289.9446 2796.3506 25.8610 0.4885
3283.8384 2777.1321 27.3106 0.4866
3284.4280 2759.1921 27.0072 0.4904
3293.0569 2742.6072 24.5975 0.4998
3303.2297 2726.1348 21.7820 0.5057
3307.4136 2708.5676 20.5349 0.5102
3304.2942 2689.8474 21.2019 0.5125
3303.3452 2671.4700 21.3002 0.4993
3311.1665 2654.2634 19.0980 0.4822
3320.1846 2637.0793 16.5808 0.4655
3325.1650 2619.2742 15.1220 0.4499
3326.9722 2601.0359 14.4954 0.4337
3330.9326 2582.9812 13.3031 0.4042
3345.4050 2565.8542 9.3498 0.3671
3341.6162 2546.9058 10.1912 0.3412
2288.3333 2444.5068 286.7686 0.0000
2089.8599 2419.6531 338.8391 0.9348
2089.0913 2410.5361 338.9661 0.9451
2088.6633 2401.4463 339.0038 0.9418
2088.5801 2392.3752 338.9508 0.9233
2086.7383 2383.2285 339.3604 0.8949
2084.5386 2374.0935 339.8643 0.8667
2084.2866 2365.0386 339.8558 0.8548
2085.2905 2356.0063 339.5169 0.8598
2085.5461 2346.9460 339.3747 0.8577
2086.1279 2337.8787 339.1466 0.8556
2088.7329 2328.7891 338.3854 0.8745
2091.4043 2319.6541 337.6064 0.9053
2093.8176 2310.4790 336.8949 0.9301
2095.5747 2301.2808 336.3562 0.9414
2096.3262 2292.0864 336.0824 0.9410
2097.6914 2282.8496 335.6464 0.9339
2100.4609 2273.5166 334.8399 0.9283
2103.4458 2264.1240 333.9762 0.9267
2104.4797 2254.8096 333.6270 0.9294
2102.9153 2245.6663 333.9634 0.9314
2101.1501 2236.5588 334.3531 0.9334
2099.2617 2227.4854 334.7757 0.9375
2095.5037 2218.6169 335.6922 0.9365
2090.3235 2209.9507 336.9851 0.9273
2085.0046 2201.3755 338.3152 0.9020
2079.7009 2192.8765 339.6420 0.8670
2077.2256 2184.0938 340.2213 0.8531
2080.0469 2174.6279 339.4001 0.8704
2085.2615 2164.7720 337.9452 0.8972
2091.7266 2154.6426 336.1587 0.9249
2100.3259 2144.0701 333.8064 0.9521
2106.1499 2133.8220 332.1878 0.9678
2112.6448 2123.3623 330.3908 0.9700
2117.7175 2113.0557 328.9695 0.9666
2120.1770 2103.1611 328.2401 0.9619
2116.1895 2094.4958 329.2188 0.9386
2079.0024 2092.6938 338.9985 0.6666
2001.6567 2100.0088 359.4309 0.9730
1983.6725 2095.4297 364.1300 0.9996
1959.0746 2092.6357 370.5857 1.0000
1953.7083 2085.6797 371.9417 1.0000
1955.6742 2077.0156 371.3523 1.0000
1956.7354 2068.5442 371.0028 0.9999
1958.0214 2059.9941 370.5935 0.9999
1959.0085 2051.5000 370.2633 0.9998
1959.9827 2042.9897 369.9365 0.9999
1963.0747 2033.8622 369.0467 0.9997
2986.1721 1728.2769 97.0505 0.0429
3300.0088 1618.3607 13.4816 0.3050
3293.3025 1601.6869 15.1103 0.3543
3293.7576 1582.8604 14.8349 0.3910
3302.8870 1561.2255 12.2517 0.4134
3305.2751 1541.6614 11.4611 0.4207
3305.4180 1522.8085 11.2678 0.4191
3306.9104 1503.4783 10.7151 0.4207
3303.7720 1485.7506 11.3953 0.4203
3301.4736 1467.7599 11.8520 0.4292
3306.6404 1447.0431 10.3201 0.4580
3309.3364 1427.1664 9.4458 0.4868
3310.0740 1407.9915 9.0932 0.5021
3311.6392 1388.4708 8.5197 0.5033
3313.5464 1368.7795 7.8548 0.4963
3315.6335 1348.9760 7.1415 0.4861
3316.6089 1329.5925 6.7245 0.4614
3315.4976 1311.0687 6.8643 0.4310
3309.4253 1294.6947 8.3284 0.4185
3310.1738 1275.4088 7.9719 0.4155
3322.3591 1250.9857 4.5608 0.4078
3338.1816 1224.7054 0.1763 0.3956
3348.0605 1200.9192 -2.6222 0.4782
3353.7661 1178.9332 -4.3066 0.5074
3351.8801 1160.4836 -3.9622 0.5253
3336.3677 1148.6880 0.0262 0.4698
3317.0891 1138.9912 5.0239 0.4698
3311.9851 1122.4653 6.2318 0.4826
3315.6331 1101.5426 5.0982 0.4893
3317.6780 1081.3843 4.3931 0.4888
3317.1956 1062.5143 4.3643 0.4785
3318.3533 1042.7662 3.8963 0.4707
3323.0952 1021.0472 2.4679 0.4803
3330.4685 997.7963 0.3338 0.4949
3329.1841 979.2505 0.5190 0.5090
3314.2517 968.4397 4.3628 0.5108
3301.3472 956.6927 7.6646 0.4976
3299.4133 938.7585 8.0259 0.5027
3305.7783 915.9506 6.1610 0.5189
3311.6326 893.3376 4.4324 0.5283
3309.6313 875.3804 4.8111 0.5255
3304.9294 859.1027 5.9151 0.5014
3298.0381 844.2513 7.6076 0.4800
3294.8972 827.1393 8.2936 0.4712
3291.6938 810.1079 8.9966 0.4521
3287.6526 793.6589 9.9252 0.4392
3302.0049 765.2451 5.9103 0.3979
2927.3408 3485.1582 111.3692 0.0489
3048.0688 3537.8547 79.0673 0.0842
3033.8784 3514.1086 82.7148 0.1334
3037.5586 3500.3206 81.5992 0.2889
3069.5745 3501.7278 72.9262 0.5822
3072.0598 3486.9707 72.1265 0.5720
3090.9084 3480.7375 66.9604 0.5723
3122.4468 3480.7678 58.4052 0.5282
3166.5054 3486.6919 46.5038 0.5791
3210.6633 3492.0032 34.5701 0.5567
3248.2205 3493.3901 24.3937 0.5986
3279.4226 3491.1189 15.9102 0.5511
3302.1509 3484.3157 9.6868 0.5722
3315.5989 3472.7888 5.9407 0.5717
3322.0601 3457.8105 4.0605 0.5573
3321.4753 3439.5095 4.0635 0.5372
3318.4573 3420.1155 4.7173 0.5327
3317.3638 3401.6077 4.8564 0.5305
3321.7524 3385.4895 3.5288 0.5343
3325.6394 3369.0825 2.3349 0.5276
3329.3945 3352.5540 1.1756 0.5169
3330.9355 3335.0486 0.6087 0.5059
3330.3406 3316.6475 0.6135 0.4888
3332.5171 3299.3469 -0.1240 0.4791
3336.1331 3282.5662 -1.2477 0.4841
3336.0913 3264.3247 -1.3915 0.4894
3338.5793 3247.0232 -2.2136 0.4942
3342.5283 3230.2122 -3.4278 0.5003
3340.2021 3211.0764 -2.9596 0.4912
3334.6606 3190.8350 -1.6285 0.4800
3329.6687 3170.8577 -0.4442 0.4808
3322.3950 3150.1777 1.3530 0.4920
3317.0627 3130.2373 2.6299 0.5099
3313.8840 3111.0625 3.3291 0.4996
3308.8599 3091.3464 4.5243 0.4805
3301.8206 3071.0786 6.2615 0.4254
3286.3025 3048.3691 10.2779 0.3695
3290.8423 3031.7400 8.9049 0.3545
3211.5933 2991.2048 30.0581 0.2435
2338.4778 2732.0654 264.7052 0.8204
2319.2808 2716.0605 269.7766 0.7311
3016.7356 2887.9441 82.0391 0.0731
3335.9802 2953.1438 -4.0082 0.3294
3341.1233 2936.0315 -5.5489 0.4035
3323.4363 2913.3738 -0.9437 0.4254
3314.1543 2892.9204 1.4003 0.4708
3311.9885 2874.1934 1.8285 0.5141
3307.4285 2854.9714 2.9020 0.5258
3303.0234 2835.8423 3.9343 0.5142
3294.2749 2815.8972 6.1378 0.5002
3282.5381 2795.4971 9.1482 0.4934
3280.4617 2777.0640 9.5547 0.5017
3281.2051 2759.1575 9.2007 0.5106
3286.5947 2742.0259 7.5930 0.5253
3295.5347 2725.3838 5.0262 0.5344
3300.9285 2708.0447 3.4156 0.5400
3300.5173 2689.7544 3.3715 0.5411
3301.2854 2671.6279 3.0090 0.5184
3303.2278 2653.6367 2.3290 0.5006
3303.7029 2635.4233 2.0453 0.5053
3300.8442 2616.8015 2.6623 0.5180
3293.6094 2597.7322 4.4627 0.5281
3284.8054 2578.6033 6.6883 0.5179
3283.0623 2560.2703 7.0052 0.4697
3283.8672 2542.1775 6.6330 0.4169
3252.9971 2521.5398 14.8316 0.3567
3187.6333 2498.8796 32.3702 0.2879
2147.5222 2414.4236 313.8042 0.9554
2093.1733 2401.8159 328.4402 0.9890
2091.1208 2392.6040 328.9186 0.9696
2087.5908 2383.3577 329.7975 0.9272
2084.1616 2374.1646 330.6496 0.8832
2083.8101 2365.0999 330.6678 0.8583
2083.3123 2356.0337 330.7258 0.8516
2083.4333 2346.9773 330.6160 0.8493
2084.3269 2337.9172 330.2964 0.8503
2086.7090 2328.8328 329.5730 0.8650
2090.0842 2319.6953 328.5797 0.8960
2094.3325 2310.4839 327.3489 0.9256
2097.9609 2301.2200 326.2858 0.9417
2099.5396 2291.9680 325.7789 0.9448
2101.4824 2282.6721 325.1728 0.9399
2104.5769 2273.2832 324.2535 0.9350
2106.8687 2263.8892 323.5519 0.9300
2106.6079 2254.6238 323.5438 0.9280
2103.8396 2245.5427 324.2175 0.9292
2101.7351 2236.4456 324.7111 0.9348
2098.5640 2227.4722 325.4949 0.9381
2093.3518 2218.7402 326.8345 0.9316
2088.0181 2210.0969 328.2079 0.9179
2083.8064 2201.4058 329.2766 0.8969
2081.4353 2192.5544 329.8445 0.8823
2081.7363 2183.3938 329.6848 0.8918
2085.6265 2173.7385 328.5474 0.9153
2091.3093 2163.7615 326.9210 0.9289
2098.5237 2153.4614 324.8763 0.9394
2107.6287 2142.7451 322.3152 0.9556
2114.8906 2132.1895 320.2556 0.9639
2123.0227 2121.3657 317.9575 0.9568
2127.1018 2111.1484 316.7640 0.9569
2127.8704 2101.4910 316.4734 0.9560
2124.4211 2092.6497 317.3339 0.9456
2102.4805 2087.6519 323.2432 0.7640
2023.0016 2095.2441 344.8682 0.8877
1988.8066 2094.0718 354.1342 0.9991
1958.9193 2092.4424 362.2280 1.0000
1951.7898 2085.8967 364.1064 1.0000
1953.6173 2077.2715 363.5372 1.0000
1953.9924 2068.9800 363.3650 0.9999
1954.6285 2060.6106 363.1212 0.9998
1956.6132 2051.8669 362.5085 0.9992
1957.2101 2043.4701 362.2751 0.9998
1959.2306 2034.6569 361.6521 0.9997
2799.8191 1781.8885 131.4744 0.0003
3257.5205 1630.3473 6.0242 0.3172
3268.9377 1608.4320 2.7407 0.3620
3270.2729 1589.4985 2.2174 0.4057
3274.9504 1569.4579 0.7780 0.4322
3277.4685 1550.0480 -0.0701 0.4312
3277.8398 1531.3146 -0.3302 0.4265
3279.9424 1511.9681 -1.0652 0.4288
3278.4983 1493.8331 -0.8276 0.4342
3275.4233 1476.3013 -0.1426 0.4401
3274.8816 1457.8733 -0.1524 0.4526
3273.0059 1439.9475 0.2039 0.4616
3270.8906 1422.1344 0.6263 0.4746
3269.5325 1404.0480 0.8409 0.4924
3268.6023 1385.8027 0.9380 0.4957
3267.5640 1367.6069 1.0649 0.4900
3263.1970 1350.8043 2.1066 0.4820
3256.8093 1334.9186 3.7043 0.4719
3252.4417 1318.2517 4.7473 0.4607
3254.5791 1298.7825 4.0019 0.4450
3263.4924 1276.2363 1.3922 0.4177
3282.4775 1248.9501 -3.9900 0.4256
3305.8452 1219.3236 -10.5810 0.4259
3319.8506 1193.7335 -14.5979 0.4428
3324.3379 1172.4756 -15.9960 0.4862
3307.3748 1161.5905 -11.4870 0.5145
3279.7627 1156.2383 -4.0421 0.4893
3272.2114 1141.2200 -2.1214 0.4888
3272.5818 1122.2639 -2.3832 0.5010
3271.2949 1104.1532 -2.1881 0.5081
3269.5093 1086.3160 -1.8554 0.5079
3268.4590 1068.1047 -1.7254 0.5128
3268.9822 1049.0469 -2.0295 0.5295
3271.4070 1028.9248 -2.8584 0.5500
3271.8020 1009.8882 -3.1275 0.5541
3265.6052 994.5714 -1.5767 0.5285
3259.8879 979.0679 -0.1577 0.5113
3260.2375 960.1129 -0.4137 0.5174
3262.1550 940.2170 -1.1031 0.5268
3266.6680 918.7286 -2.5101 0.5428
3266.8757 899.7695 -2.7278 0.5390
3263.9294 882.7353 -2.0734 0.5107
3258.3884 867.3534 -0.7011 0.4807
3255.0750 850.6468 0.0556 0.4620
3252.8911 833.2632 0.5002 0.4410
3251.1365 815.6273 0.8261 0.4635
3259.8643 791.1531 -1.7496 0.4061
2972.1565 3511.9465 83.3717 0.0493
3090.3853 3562.9690 50.8123 0.2036
3064.4888 3532.3994 57.7743 0.2908
3080.5198 3525.1196 53.2351 0.5244
3084.6741 3511.1914 51.9535 0.6592
3078.6501 3491.7832 53.4653 0.6271
3093.3638 3483.3279 49.2836 0.6000
3127.3777 3484.6204 39.7993 0.5503
3176.1851 3492.9348 26.2465 0.5871
3219.9729 3497.9961 14.0665 0.5648
3248.9648 3495.0815 5.9472 0.5888
3271.1057 3488.3904 -0.2925 0.5310
3286.4116 3478.0828 -4.6556 0.5467
3291.1687 3462.5583 -6.1196 0.5395
3286.5647 3442.6047 -5.0089 0.5252
3282.4067 3422.9153 -4.0205 0.5216
3282.7424 3405.3003 -4.2684 0.5301
3282.7029 3387.5061 -4.4131 0.5321
3285.2600 3370.8328 -5.2729 0.5457
3287.5945 3354.0183 -6.0718 0.5495
3289.8303 3337.1187 -6.8439 0.5349
3292.9316 3320.5339 -7.8549 0.5076
3292.3291 3302.3948 -7.8455 0.4792
3292.7129 3284.6482 -8.1080 0.4699
3299.4062 3269.3477 -10.1105 0.4626
3303.8738 3253.0869 -11.5000 0.4667
3303.7236 3235.0190 -11.6163 0.4679
3302.1050 3216.4058 -11.3274 0.4680
3296.0854 3196.2236 -9.8235 0.4763
3287.2310 3175.1238 -7.5363 0.4868
3282.5762 3155.5977 -6.4077 0.4975
3276.1519 3135.5354 -4.7899 0.5069
3271.7031 3116.2131 -3.7170 0.5065
3272.6746 3098.6968 -4.1416 0.4890
3268.9036 3079.6641 -3.2554 0.4571
3256.9053 3058.1509 -0.0942 0.3972
3243.2954 3036.3271 3.5142 0.3689
3234.5049 3016.1084 5.7913 0.3196
2626.7170 2825.4578 173.7993 0.0004
2331.3699 2730.5742 255.4211 0.8597
2322.3269 2717.3428 257.8297 0.7991
3173.9666 2929.8242 21.9366 0.2570
3266.8591 2936.3015 -3.9396 0.2336
3284.6086 2922.8069 -9.0129 0.3239
3276.3223 2902.8022 -6.8747 0.3819
3272.1929 2883.8779 -5.8876 0.4299
3276.6711 2866.9377 -7.2860 0.4728
3276.3425 2848.8801 -7.3523 0.4876
3273.8848 2830.3733 -6.8282 0.4847
3265.4399 2810.6882 -4.6430 0.4784
3256.0728 2790.9438 -2.2008 0.4749
3262.9604 2774.3628 -4.2688 0.4954
3271.6621 2757.9929 -6.8413 0.5046
3273.3557 2740.2825 -7.4691 0.5129
3283.5200 2723.9238 -10.4499 0.5277
3293.4087 2707.3589 -13.3555 0.5528
3291.6565 2688.9070 -13.0279 0.5705
3289.4417 2670.4082 -12.5715 0.5526
3287.5867 2651.9822 -12.2150 0.5315
3281.2563 2633.0139 -10.6137 0.5297
3273.5068 2613.9656 -8.6170 0.5350
3267.7065 2595.2419 -7.1617 0.5392
3260.4319 2576.4470 -5.2953 0.5206
3250.1567 2557.4688 -2.5929 0.4649
3230.9993 2537.8623 2.5837 0.3968
3202.0952 2517.7617 10.4769 0.3302
3172.6531 2498.0562 18.5238 0.2637
3175.0593 2480.8464 17.7014 0.2430
3065.5994 2457.2302 48.0527 0.3352
2111.7034 2393.7212 313.7969 0.9716
2088.0376 2383.4702 320.3141 0.9427
2082.0566 2374.1770 321.9023 0.8786
2081.1826 2365.1050 322.0669 0.8471
2080.8271 2356.0520 322.0870 0.8481
2082.1855 2347.0183 321.6287 0.8604
2084.1482 2337.9612 321.0016 0.8681
2086.8623 2328.8667 320.1642 0.8748
2090.9182 2319.7100 318.9517 0.8966
2097.0718 2310.4448 317.1527 0.9258
2102.3374 2301.1045 315.6009 0.9434
2104.3369 2291.7942 314.9612 0.9494
2107.0618 2282.4177 314.1185 0.9470
2110.7817 2272.9441 312.9970 0.9443
2112.4937 2263.5256 312.4367 0.9445
2110.8330 2254.2993 312.8195 0.9432
2106.2114 2245.3123 314.0311 0.9425
2102.5935 2236.3103 314.9622 0.9432
2098.5378 2227.3987 316.0165 0.9422
2093.1077 2218.6785 317.4561 0.9308
2087.9841 2210.0054 318.8105 0.9155
2085.5854 2201.1011 319.4021 0.9047
2086.7148 2191.8059 319.0056 0.9087
2089.3762 2182.2930 318.1793 0.9268
2093.5825 2172.5251 316.9195 0.9434
2100.0566 2162.3625 315.0232 0.9483
2107.8188 2151.9004 312.7646 0.9502
2115.7805 2141.2825 310.4490 0.9546
2122.1702 2130.7976 308.5735 0.9572
2128.1609 2120.2788 306.8089 0.9447
2130.2083 2110.3804 306.1507 0.9439
2133.7314 2100.1655 305.0777 0.9283
2142.0234 2088.9487 302.6647 0.8767
2148.1838 2078.0361 300.8494 0.4959
2153.0706 2067.2944 299.3911 0.0335
1987.4647 2094.1421 345.8584 0.9931
1953.3346 2093.4907 355.3808 1.0000
1947.2589 2086.7317 357.0179 1.0000
1951.4462 2077.5564 355.7686 1.0000
1952.1558 2069.1877 355.4973 0.9999
1952.4677 2060.9080 355.3377 0.9998
1954.4478 2052.1726 354.7084 0.9996
1957.3597 2043.1454 353.8164 0.9994
1961.2286 2033.7977 352.6545 0.9984
2523.1914 1861.8899 194.2660 0.0000
3208.2312 1644.3909 1.1189 0.3458
3225.6677 1620.9904 -3.9538 0.3850
3229.4299 1601.6111 -5.1737 0.4303
3237.1392 1580.8907 -7.5073 0.4650
3242.6421 1560.7698 -9.2196 0.4789
3242.7588 1542.3746 -9.4133 0.4635
3242.8052 1523.9933 -9.5871 0.4563
3242.1965 1505.8339 -9.5761 0.4534
3241.5056 1487.7050 -9.5419 0.4467
3240.9531 1469.5267 -9.5468 0.4483
3235.4746 1453.2073 -8.1602 0.4547
3230.7917 1436.6586 -6.9978 0.4666
3226.4839 1420.0270 -5.9408 0.4876
3225.8647 1401.9753 -5.9259 0.5081
3225.0747 1383.9943 -5.8628 0.5148
3222.2969 1366.8453 -5.2374 0.5110
3216.6895 1350.9324 -3.8113 0.4988
3213.6614 1333.9835 -3.1143 0.4886
3217.6042 1314.0035 -4.3899 0.4792
3222.2529 1293.6361 -5.8659 0.4593
3231.3440 1271.1595 -8.6006 0.4314
3249.9661 1244.1073 -14.0362 0.4032
3267.6440 1217.1970 -19.2070 0.4318
3268.8540 1197.9012 -19.7137 0.4622
3252.4531 1187.1680 -15.2290 0.4651
3235.8210 1176.8002 -10.6765 0.5005
3234.0789 1159.1871 -10.3443 0.5147
3234.4011 1140.5364 -10.5975 0.5256
3233.7783 1122.3629 -10.5827 0.5357
3232.4817 1104.5453 -10.3767 0.5367
3230.5220 1087.0942 -9.9824 0.5398
3227.8464 1070.0541 -9.3846 0.5529
3225.8289 1052.6849 -8.9734 0.5800
3226.7595 1033.6898 -9.3995 0.5966
3223.9773 1016.7767 -8.7708 0.5859
3222.6599 999.0565 -8.5582 0.5794
3225.4365 978.9612 -9.5092 0.5623
3223.5422 961.5732 -9.1326 0.5499
3223.3440 943.1901 -9.2382 0.5515
3224.2559 924.1276 -9.6596 0.5473
3221.3826 907.3690 -9.0042 0.5455
3216.8162 891.7018 -7.8665 0.5555
3214.8474 874.4596 -7.4678 0.5468
3214.2458 856.3663 -7.4583 0.5218
3212.2495 839.1759 -7.0514 0.4939
3213.1047 820.1406 -7.4568 0.4401
2972.0686 3513.2285 67.3055 0.0370
3094.3474 3566.5869 32.6810 0.1785
3066.9111 3535.1006 40.2742 0.2868
3094.5884 3534.1675 32.3200 0.5693
3095.5964 3518.4226 31.8888 0.7042
3088.6711 3498.4324 33.6971 0.6797
3102.6270 3489.4966 29.6101 0.6310
3143.2622 3494.1487 17.9861 0.5829
3191.2690 3501.9480 4.2741 0.4953
3223.6536 3501.1738 -5.0300 0.5710
3241.8499 3492.8857 -10.3286 0.5822
3251.6833 3480.2402 -13.2655 0.5524
3253.5559 3463.6172 -13.9527 0.5043
3246.5984 3442.7842 -12.1429 0.4784
3231.4558 3418.2390 -8.0165 0.4817
3225.1670 3397.9644 -6.3936 0.5078
3235.3171 3385.1780 -9.4227 0.5317
3245.0422 3372.0430 -12.3329 0.5346
3248.4529 3356.0054 -13.4565 0.5535
3250.0669 3339.1399 -14.0716 0.5566
3244.3921 3319.1782 -12.6222 0.5371
3237.6338 3298.8452 -10.8649 0.5044
3229.8687 3278.1970 -8.8215 0.4776
3229.1218 3260.4497 -8.7669 0.4672
3235.7285 3245.5757 -10.7974 0.4504
3241.1917 3230.1570 -12.5047 0.4461
3243.4270 3213.4363 -13.2969 0.4455
3242.9517 3195.6758 -13.3203 0.4560
3242.3281 3177.8611 -13.3016 0.4773
3241.9414 3160.1306 -13.3502 0.4909
3242.3640 3142.6775 -13.6287 0.4962
3236.0859 3122.9456 -12.0040 0.5020
3228.4138 3102.8394 -9.9824 0.4966
3225.5364 3084.3879 -9.3224 0.4695
3216.8423 3064.1377 -7.0087 0.4333
3206.6118 3043.5376 -4.2571 0.3925
3202.4155 3024.8948 -3.2202 0.3431
3173.0818 2998.9509 4.9676 0.2719
2344.7065 2745.6526 240.5040 0.8947
2330.1870 2730.7231 244.5380 0.8973
2351.6106 2725.7114 238.3425 0.8377
3161.2910 2927.2200 7.7069 0.3341
3182.0708 2915.4253 1.6351 0.2906
3188.5227 2899.7649 -0.3581 0.3480
3191.0881 2883.0667 -1.2450 0.3771
3201.6807 2868.1853 -4.4199 0.3939
3207.2820 2852.0137 -6.1735 0.4128
3205.3586 2834.1162 -5.7825 0.4387
3205.3259 2816.6355 -5.9305 0.4586
3201.3108 2798.3430 -4.9425 0.4817
3195.9004 2779.8325 -3.5558 0.4969
3211.6155 2765.3381 -8.1979 0.5058
3232.2283 2751.4734 -14.2404 0.4844
3238.5403 2734.8357 -16.2023 0.4633
3253.9023 2719.5757 -20.7498 0.4953
3275.1257 2704.9893 -26.9741 0.5381
3273.3662 2686.6555 -26.6340 0.5681
3268.0837 2667.8435 -25.2869 0.5605
3263.2771 2649.1667 -24.0750 0.5373
3251.9609 2629.7358 -21.0013 0.5146
3238.4204 2610.2065 -17.2898 0.4953
3236.0388 2592.1079 -16.7689 0.4971
3236.3855 2574.3176 -17.0286 0.4876
3216.1892 2554.5576 -11.4083 0.4436
3176.4585 2533.3872 -0.1927 0.3789
3145.6365 2513.5278 8.4772 0.3057
3134.6775 2495.5671 11.4617 0.2864
3142.2507 2478.9634 9.1380 0.2982
3167.5876 2463.2476 1.7227 0.2289
3178.2424 2446.4116 -1.4878 0.2450
3122.0476 2426.6201 14.4669 0.3587
2898.2588 2401.9885 78.4923 0.0514
2212.9915 2368.6460 274.9241 0.3240
2092.0188 2356.3245 309.5431 0.9171
2088.8413 2347.1455 310.3726 0.9379
2089.2522 2338.0227 310.1725 0.9411
2089.5422 2328.8896 310.0070 0.9197
2092.8647 2319.7112 308.9706 0.9145
2099.3926 2310.4138 307.0129 0.9284
2104.8665 2301.0403 305.3570 0.9387
2109.3599 2291.6123 303.9821 0.9421
2114.3838 2282.0881 302.4540 0.9397
2118.9988 2272.5029 301.0429 0.9432
2120.1367 2263.0442 300.6310 0.9558
2117.3201 2253.8252 301.3567 0.9588
2110.0410 2244.9739 303.3667 0.9562
2103.1311 2236.2007 305.2714 0.9477
2097.7441 2227.3938 306.7387 0.9423
2093.7026 2218.5354 307.8192 0.9341
2090.6724 2209.6289 308.6090 0.9257
2091.1838 2200.3667 308.3788 0.9257
2095.8953 2190.5874 306.9382 0.9357
2101.3962 2180.6301 305.2693 0.9493
2107.5857 2170.4890 303.4011 0.9621
2114.2300 2160.1826 301.4008 0.9657
2119.2778 2150.0100 299.8602 0.9598
2124.5513 2139.7188 298.2535 0.9554
2129.0769 2129.4651 296.8620 0.9512
2132.9062 2119.2583 295.6707 0.9292
2140.5090 2108.2998 293.3894 0.9054
2330.6348 2062.5366 238.3947 0.0000
2655.9976 1987.0604 144.3075 0.0013
2874.0125 1928.5831 81.1916 0.2150
2950.7947 1896.8375 58.8626 0.5319
2107.6775 2067.3301 302.4461 0.0004
1951.3969 2093.7065 347.5499 1.0000
1946.6333 2086.6440 348.8539 1.0000
1950.8677 2077.4519 347.5554 1.0000
1951.8311 2069.0146 347.2029 1.0000
1952.1344 2060.7302 347.0413 0.9999
1953.0542 2052.2720 346.7011 0.9999
1955.9106 2043.2611 345.7999 0.9999
1959.6157 2033.9613 344.6525 0.9999
1977.1274 2020.5751 339.5046 0.9896
3138.1848 1664.6740 2.9753 0.4107
3172.5618 1636.5945 -7.1467 0.4297
3170.1826 1619.5439 -6.6171 0.4497
3178.5527 1599.0520 -9.2045 0.4603
3192.0374 1576.7294 -13.2767 0.4518
3189.8572 1559.4885 -12.8061 0.4406
3189.4688 1541.6526 -12.8551 0.4400
3195.3503 1521.5930 -14.7242 0.4266
3199.4167 1502.0897 -16.0673 0.4228
3195.4575 1485.4827 -15.0801 0.3989
3189.0400 1469.8572 -13.3783 0.4062
3183.1729 1454.1122 -11.8356 0.4312
3178.4785 1437.9891 -10.6331 0.4654
3183.0686 1418.2045 -12.1290 0.4970
3182.0415 1400.6375 -11.9922 0.5235
3177.7422 1384.4431 -10.9037 0.5370
3172.7749 1368.5918 -9.6204 0.5372
3170.4795 1351.6533 -9.1139 0.5376
3175.8748 1331.3518 -10.8455 0.5296
3181.4895 1310.8580 -12.6419 0.5124
3188.8430 1289.4723 -14.9456 0.4692
3201.2146 1265.6306 -18.7119 0.4066
3207.1929 1244.6045 -20.6175 0.3933
3201.6924 1228.9896 -19.1788 0.4070
3184.2546 1219.2820 -14.2601 0.4690
3183.5273 1201.5494 -14.2110 0.4869
3189.7825 1180.2990 -16.1980 0.4783
3192.0034 1161.0065 -17.0093 0.4966
3190.6782 1143.5143 -16.7863 0.5076
3184.8965 1128.3867 -15.2626 0.5068
3177.7981 1114.0481 -13.3538 0.5103
3170.8008 1099.7582 -11.4735 0.5183
3168.1992 1083.1454 -10.8762 0.5429
3169.2817 1064.5024 -11.3548 0.5693
3164.3125 1049.2692 -10.0654 0.5759
3164.9041 1030.9050 -10.4005 0.5757
3174.5322 1007.2483 -13.3776 0.5591
3176.2881 988.0865 -14.0541 0.5472
3177.0796 969.4662 -14.4490 0.5383
3177.7163 950.9186 -14.7988 0.5382
3173.8928 935.0973 -13.8435 0.5562
3171.7424 918.2848 -13.3775 0.5688
3172.0569 899.9412 -13.6329 0.5543
3169.3193 883.5358 -12.9947 0.5433
3164.8728 868.2715 -11.8556 0.5310
3162.1963 851.9094 -11.2344 0.4682
2948.5063 3501.1328 58.0075 0.0327
3062.1873 3549.8901 24.9202 0.1721
3050.3445 3527.2656 28.2048 0.2846
3075.9138 3525.3010 20.6431 0.5433
3086.0007 3514.5837 17.5681 0.6915
3088.3914 3499.6079 16.7243 0.6755
3107.4187 3493.3296 11.0527 0.6154
3151.1819 3499.5730 -1.8006 0.5612
3189.9265 3502.5950 -13.2032 0.4827
3210.2056 3495.7415 -19.2494 0.5579
3215.7952 3481.2976 -21.0321 0.5528
3212.2935 3462.3237 -20.1745 0.5210
3199.6685 3439.0085 -16.6655 0.4730
3180.9082 3412.9700 -11.3717 0.4338
3152.2107 3382.5752 -3.1865 0.4855
3132.3403 3356.6467 2.4359 0.5303
3152.6877 3349.1379 -3.6365 0.5324
3193.3647 3350.3301 -15.6261 0.4998
3205.2314 3338.3479 -19.2378 0.5238
3208.2395 3322.3857 -20.2730 0.5479
3196.1106 3299.9985 -16.9018 0.5230
3171.5159 3272.6326 -9.8989 0.4908
3151.3364 3247.4194 -4.1788 0.4977
3144.3955 3227.7747 -2.3128 0.5111
3140.5710 3209.4443 -1.3540 0.5165
3139.4038 3192.1819 -1.1694 0.5264
3142.7349 3176.6196 -2.2961 0.5195
3159.3513 3165.8926 -7.2975 0.4972
3182.0669 3157.1086 -14.0804 0.4885
3196.1472 3144.9238 -18.3471 0.4924
3202.8157 3129.9561 -20.4529 0.4909
3198.0510 3111.0125 -19.2225 0.4883
3192.4365 3091.8516 -17.7433 0.4753
3183.1941 3071.5947 -15.2039 0.4318
3166.3062 3049.0554 -10.4301 0.3876
3162.6545 3030.8413 -9.5214 0.3786
3171.7683 3016.5100 -12.3426 0.3212
3115.7424 2982.9487 3.8758 0.2590
2337.4956 2744.0891 231.2663 0.9074
2332.0576 2731.7209 232.7562 0.9159
2933.5078 2883.4709 56.7188 0.0897
3115.1311 2915.8118 3.4351 0.3691
3110.5505 2897.8838 4.6205 0.3859
3109.2134 2880.8196 4.8572 0.4106
3101.8911 2862.3315 6.8464 0.4263
3106.0405 2846.6130 5.4768 0.4436
3106.6125 2830.0188 5.1546 0.4603
3107.3760 2813.4497 4.7761 0.4613
3113.3252 2797.9480 2.8775 0.4640
3118.6355 2782.2195 1.1654 0.4792
3121.6960 2765.9641 0.1121 0.4809
3135.0554 2751.5784 -3.9623 0.4749
3154.7341 2738.1145 -9.8925 0.4519
3157.9146 2721.5110 -10.9844 0.4373
3173.5327 2706.8914 -15.7273 0.4685
3212.0588 2695.6086 -27.1977 0.4983
3219.1206 2679.0483 -29.4343 0.5305
3214.5212 2660.7258 -28.2469 0.5415
3211.8149 2642.7173 -27.6151 0.5255
3201.6543 2623.8035 -24.7924 0.5187
3187.9172 2604.6133 -20.9172 0.5099
3185.7231 2586.9014 -20.4337 0.4966
3190.2839 2569.9106 -21.9365 0.4664
3164.4702 2549.9456 -14.5055 0.4058
3126.9187 2529.3374 -3.6176 0.3456
3112.6384 2511.1589 0.4272 0.3389
3101.7922 2493.4390 3.4632 0.3310
3099.4583 2476.4282 3.9944 0.3344
3130.3259 2461.3396 -5.2519 0.3456
3154.6941 2445.4490 -12.5880 0.2498
3160.8511 2428.4160 -14.5620 0.2801
3172.3093 2411.4604 -18.0993 0.3119
3169.7163 2393.9502 -17.4963 0.3387
3044.8254 2374.1870 19.1665 0.2447
2561.5745 2352.3962 161.5347 0.0014
2151.8892 2338.2747 282.2703 0.3437
2109.2517 2328.8381 294.7621 0.9744
2111.7153 2319.5083 293.9489 0.9660
2114.4951 2310.1299 293.0420 0.9544
2110.2842 2300.8962 294.1989 0.9297
2118.0605 2291.3008 291.8160 0.9194
2128.2981 2281.4756 288.7048 0.9213
2130.0532 2271.9172 288.0985 0.9344
