2712.9333 3144.8157 9.7016 0.8777
2712.4700 3130.9368 9.7118 0.8742
2709.3184 3115.8962 10.6743 0.8692
2713.2690 3103.9141 9.1205 0.8719
2712.9546 3090.0857 9.0777 0.8851
2713.9365 3076.7871 8.5753 0.8954
2715.7646 3063.8069 7.7727 0.8864
2719.3325 3051.4790 6.3525 0.8659
2718.1863 3037.2664 6.6041 0.8602
2719.8777 3024.1409 5.8488 0.8728
2715.6729 3008.7908 7.1861 0.8839
2716.2075 2995.2244 6.8414 0.8809
2712.5527 2980.1484 7.9841 0.8756
2709.8401 2965.4509 8.7928 0.8773
2709.9619 2951.7556 8.5948 0.8872
2707.7854 2937.2844 9.2135 0.9082
2706.9656 2923.2822 9.3503 0.9342
2710.4924 2910.6711 7.9416 0.9569
2711.6414 2897.2603 7.3780 0.9738
2337.5977 2769.9817 140.2737 0.9597
2346.7058 2761.7349 136.9099 0.8926
2717.1392 2857.4734 4.9556 0.8213
2708.2141 2841.1233 7.9767 0.8285
2715.3860 2829.2966 5.2680 0.8994
2719.3838 2816.5120 3.6883 0.9388
2717.0049 2802.0156 4.3794 0.9187
2716.2351 2787.9519 4.4974 0.9026
2712.5825 2773.1943 5.6430 0.9171
2710.0093 2758.7393 6.4044 0.9240
2713.1582 2745.6165 5.1257 0.9158
2709.7297 2730.9951 6.1924 0.9223
2706.5740 2716.4778 7.1622 0.9431
2704.0115 2702.1230 7.9208 0.9532
2711.7227 2689.8188 5.0129 0.9463
2708.9856 2675.4172 5.8338 0.9395
2706.6150 2661.1177 6.5240 0.9384
2703.1584 2646.6594 7.6026 0.9338
2709.1907 2633.8203 5.2917 0.9260
2703.1050 2618.9663 7.3100 0.9257
2706.5098 2605.6262 5.9370 0.9313
2701.5054 2591.0273 7.5698 0.9301
2700.5913 2577.0508 7.7407 0.9242
2695.8909 2562.5994 9.2660 0.9240
2700.5669 2549.3354 7.4374 0.9297
2698.1948 2535.2041 8.1301 0.9257
2694.1946 2520.9326 9.4059 0.9097
2693.2463 2507.0107 9.5898 0.8930
2706.8049 2494.3843 4.5784 0.8794
2706.5439 2480.4221 4.5148 0.8620
2704.6111 2466.3342 5.0504 0.8495
2704.7822 2452.4077 4.8320 0.8590
2701.7532 2438.2864 5.7608 0.8820
2699.1560 2424.2273 6.5352 0.8911
2697.3293 2410.2336 7.0337 0.8848
2689.6953 2396.0608 9.6157 0.8867
2690.1243 2382.2163 9.3057 0.9024
2691.5957 2368.3782 8.6215 0.9137
2696.5754 2354.5505 6.6774 0.9140
2698.5962 2340.6282 5.7950 0.9159
2693.4028 2326.6975 7.5031 0.9213
2695.3706 2312.7556 6.6395 0.9227
2690.1147 2298.9182 8.3711 0.9185
2687.3674 2285.0869 9.2021 0.9178
2691.3865 2271.0532 7.6007 0.9196
2691.3525 2257.1243 7.4560 0.9214
2691.7839 2243.1660 7.1439 0.9238
2688.0833 2229.4360 8.3183 0.9292
2681.0840 2215.9756 10.6804 0.9479
2681.0554 2202.1008 10.5343 0.9825
2686.7698 2187.7490 8.3206 1.0089
2689.0339 2173.6106 7.3483 0.9929
2689.7417 2159.5820 6.9362 0.9395
2685.8821 2146.0171 8.1695 0.8836
2679.7014 2132.7686 10.2399 0.8568
2680.5417 2118.7600 9.7804 0.8641
2682.3193 2104.6101 8.9827 0.8708
2682.7769 2090.6069 8.6607 0.8399
2682.0732 2076.7573 8.7575 0.7983
2689.1506 2061.7261 6.0465 0.8132
2687.3333 2048.0024 6.5447 0.8840
2690.9424 2033.3883 5.0839 0.9375
2693.3389 2018.9240 4.0604 0.9443
2694.1692 2004.7026 3.6021 0.9470
2699.1035 1989.6753 1.6608 0.9693
2691.8613 1976.9922 4.1189 0.9388
2689.3120 1963.4432 4.8818 0.9181
2688.2700 1949.6030 5.1002 1.0517
2698.0327 1933.3624 1.4113 1.1056
2702.0750 1918.2821 -0.2102 0.7103
2157.0378 2034.2531 196.8329 0.1590
2142.1953 2028.0172 202.0930 0.1703
1924.2366 2073.7178 280.8824 0.7389
1925.3684 2065.3506 280.3818 1.1395
1924.5391 2057.4912 280.5911 1.0829
1923.6760 2049.6509 280.8127 0.9515
1935.4347 2038.2083 276.4611 0.9761
1934.9650 2030.1716 276.5392 1.0035
1935.5161 2021.8304 276.2474 0.9689
1969.3937 2003.1493 263.8706 0.9557
2673.0513 1771.0798 8.5554 0.9585
2673.0542 1757.0460 8.3963 0.9417
2671.7610 1743.4381 8.7075 0.9093
2676.4583 1727.7974 6.8445 0.8910
2681.8694 1711.8260 4.7213 0.8916
2677.3606 1699.3074 6.1996 0.8814
2676.7891 1685.4148 6.2484 0.8558
2669.4185 1674.0626 8.7675 0.8336
2668.0381 1660.5365 9.1109 0.8308
2669.3020 1645.9966 8.4934 0.8435
2666.7146 1632.9590 9.2757 0.8574
2667.5088 1618.5861 8.8287 0.8568
2666.5361 1604.9230 9.0241 0.8481
2669.2537 1589.7150 7.8769 0.8510
2670.1467 1575.2394 7.3933 0.8697
2661.5454 1564.8916 10.3656 0.8862
2661.3013 1550.9553 10.2964 0.8872
2663.6057 1535.8617 9.2989 0.8777
2660.9385 1523.0156 10.1121 0.8658
2660.6665 1509.0825 10.0529 0.8590
2668.0508 1491.4951 7.2029 0.8615
2667.0837 1477.8324 7.3963 0.8722
2659.8589 1467.2629 9.8720 0.8855
2666.0994 1450.0569 7.4371 0.8982
2662.6450 1437.6779 8.5383 0.9037
2667.8362 1420.8781 6.4849 0.8945
2670.3325 1405.4028 5.4140 0.8814
2665.5222 1393.7745 7.0106 0.8799
2669.8984 1377.2466 5.2529 0.8862
2668.5869 1363.7642 5.5721 0.8788
2669.4741 1349.0710 5.0880 0.8555
2672.0857 1333.3820 3.9735 0.8358
2677.3005 1316.1515 1.9066 0.8279
2681.7983 1299.2472 0.1010 0.8204
2680.8601 1285.4668 0.2828 0.8147
2678.6677 1272.4432 0.9235 0.8214
2686.0515 1253.6505 -1.9399 0.8372
2686.9021 1238.7397 -2.4133 0.8416
2690.3877 1222.1703 -3.8516 0.8367
2689.4287 1208.3356 -3.6630 0.8386
2676.8013 1201.9496 0.8000 0.8433
2675.9724 1188.1417 0.9421 0.8279
2671.0037 1177.0470 2.6016 0.7969
2665.0327 1166.6887 4.6293 0.7784
2872.4089 3469.3147 -59.5805 0.0362
2862.6858 3449.0151 -56.2437 0.0281
2434.0767 3193.9062 98.2124 0.0999
2419.0786 3174.1072 103.4921 0.3795
2660.4324 3294.4648 16.2481 0.7453
2682.9001 3293.3508 7.9847 0.9503
2694.8892 3286.3306 3.5013 0.9301
2688.9453 3269.7380 5.4929 0.8801
2685.1982 3254.3613 6.6919 0.8935
2682.2039 3239.4182 7.6193 0.9182
2684.9304 3227.3779 6.4795 0.9019
2687.7686 3215.3450 5.2988 0.8960
2684.9312 3200.5066 6.1699 0.9008
2685.8157 3187.4839 5.6951 0.9072
2690.8560 3176.3975 3.7165 0.9119
2687.7839 3161.4719 4.6728 0.9195
2690.6099 3149.2727 3.4946 0.9284
2691.3767 3136.1023 3.0613 0.9331
2691.3276 3122.5540 2.9234 0.9321
2687.5244 3107.3752 4.1452 0.9284
2679.6240 3090.5046 6.8521 0.9277
2668.1467 3072.2532 10.8567 0.9347
2669.8298 3059.5669 10.0925 0.9406
2674.0449 3047.8682 8.4100 0.9320
2684.4946 3038.5615 4.4654 0.9164
2685.2356 3025.3289 4.0410 0.9147
2689.0684 3013.2527 2.4945 0.9277
2687.7051 2999.1775 2.8330 0.9330
2681.2307 2983.2527 5.0272 0.9227
2679.5371 2969.1265 5.4865 0.9101
2680.5735 2955.9741 4.9544 0.9022
2679.5598 2942.0981 5.1670 0.8923
2684.1848 2930.1160 3.3306 0.8869
2682.7153 2916.0662 3.7084 0.8947
2688.5847 2904.3735 1.4184 0.9106
2687.9270 2890.5527 1.5009 0.9223
2342.7327 2772.0669 126.8985 0.9126
2342.1721 2760.9092 126.9759 0.8770
2683.9236 2848.5237 2.4871 0.8487
2680.8159 2834.0437 3.4614 0.8721
2683.0803 2821.0725 2.4806 0.9312
2682.2725 2807.2439 2.6180 0.9658
2681.5999 2793.4563 2.7063 0.9572
2676.9917 2778.6873 4.2284 0.9464
2675.2786 2764.6841 4.6962 0.9526
2674.9695 2751.0308 4.6526 0.9567
2674.1240 2737.2542 4.8044 0.9518
2676.0278 2724.0879 3.9537 0.9537
2679.6038 2711.2400 2.4926 0.9621
2675.0547 2696.6704 3.9954 0.9672
2676.6724 2683.3765 3.2482 0.9663
2673.3345 2669.1152 4.3097 0.9655
2674.7356 2655.7578 3.6414 0.9672
2670.6514 2641.4192 4.9762 0.9686
2671.8342 2628.0115 4.3874 0.9672
2668.3762 2613.8445 5.4941 0.9637
2669.8752 2600.4702 4.7898 0.9603
2666.2314 2586.3313 5.9650 0.9579
2662.2808 2572.2009 7.2531 0.9589
2662.6270 2558.6721 6.9701 0.9608
2669.4060 2545.9021 4.3337 0.9611
2664.7434 2531.7388 5.8828 0.9559
2664.3230 2518.0835 5.8799 0.9440
2665.2163 2504.5549 5.3962 0.9272
2665.3311 2490.9368 5.1972 0.9108
2668.4958 2477.5574 3.8810 0.8976
2666.0112 2463.7083 4.6339 0.8944
2664.7441 2449.9705 4.9410 0.9059
2663.9636 2436.2739 5.0699 0.9193
2661.9814 2422.5227 5.6395 0.9159
2660.9272 2408.8350 5.8691 0.9018
2657.2773 2395.0667 7.0508 0.9012
2656.7273 2381.4316 7.0958 0.9207
2655.5586 2367.7869 7.3679 0.9433
2661.9983 2354.2407 4.8471 0.9534
2659.7563 2340.5559 5.5129 0.9532
2658.0537 2326.8970 5.9808 0.9498
2657.8115 2313.2410 5.9125 0.9465
2661.3318 2299.5076 4.4616 0.9507
2664.0381 2285.7351 3.3092 0.9695
2664.3115 2271.9998 3.0507 0.9767
2661.4746 2258.3872 3.9357 0.9438
2658.4465 2244.8220 4.8915 0.8961
2653.8042 2231.3916 6.4417 0.8923
2654.7849 2217.6536 5.9233 0.9404
2651.7048 2204.1953 6.8994 0.9872
2652.1362 2190.4902 6.5831 0.9982
2652.3267 2176.7935 6.3556 0.9844
2654.6919 2162.8743 5.3268 0.9635
2652.7642 2149.3645 5.8790 0.9386
2647.5906 2136.2461 7.6278 0.9211
2649.6729 2122.3225 6.7029 0.9214
2652.5615 2108.2563 5.4801 0.9241
2652.8977 2094.4868 5.1981 0.9071
2654.8242 2080.4753 4.3293 0.8833
2654.5432 2066.7637 4.2747 0.8873
2657.6790 2052.5020 2.9590 0.9166
2655.4673 2039.0833 3.6166 0.9303
2657.4729 2024.9507 2.7173 0.9188
2655.4131 2011.5273 3.3192 0.9109
2659.3818 1996.9733 1.6942 0.9223
2654.7908 1984.0590 3.2315 0.9183
2648.6497 1971.5317 5.3424 0.9135
2652.1519 1957.0176 3.8891 0.9619
2649.2502 1943.8712 4.8033 0.9741
2650.0242 1929.9141 4.3584 0.8129
2666.9089 1912.0869 -2.0472 0.6037
2675.2671 1896.0923 -5.3007 0.6338
1920.5330 2074.4077 273.9053 0.8874
1918.8417 2066.8018 274.4388 1.0601
1922.2323 2057.8435 273.0906 1.0359
1929.7047 2047.6908 270.2296 0.9781
1923.6869 2041.2798 272.3657 0.9880
1926.2162 2032.4446 271.3352 1.0034
1932.4655 2022.4407 268.9251 0.9846
1946.0723 2010.0518 263.7859 0.9543
2640.7473 1780.7903 6.0480 0.9232
2642.4409 1766.4457 5.2609 0.9057
2650.4761 1749.9501 2.1203 0.9079
2651.1680 1735.8302 1.7037 0.9178
2650.5339 1722.1566 1.7790 0.9247
2652.8250 1707.4396 0.7683 0.9243
2645.8589 1696.0653 3.1954 0.9187
2640.0862 1684.3486 5.1803 0.9091
2639.9905 1670.5505 5.0566 0.9033
2637.9529 1657.5038 5.6547 0.9071
2638.8828 1643.3027 5.1496 0.9151
2638.0178 1629.8079 5.3119 0.9178
2638.2786 1615.8547 5.0555 0.9149
2637.9575 1602.1357 5.0154 0.9160
2631.3247 1591.1255 7.3243 0.9239
2631.8904 1577.0653 6.9547 0.9321
2630.9060 1563.6801 7.1621 0.9353
2632.2852 1549.2317 6.4893 0.9354
2635.2861 1534.0062 5.2120 0.9344
2637.8240 1518.9434 4.1065 0.9339
2638.4180 1504.7610 3.7251 0.9358
2638.3062 1490.9048 3.6066 0.9401
2633.8633 1479.1808 5.1031 0.9445
2634.8984 1464.7742 4.5572 0.9467
2634.5867 1451.0300 4.5133 0.9437
2634.3826 1437.2285 4.4294 0.9344
2637.9626 1421.4347 2.9329 0.9245
2639.4900 1406.6716 2.2020 0.9209
2638.7327 1393.1144 2.3240 0.9245
2637.5061 1379.8203 2.6214 0.9278
2637.2742 1365.9844 2.5472 0.9263
2634.8374 1353.3931 3.2971 0.9210
2643.7419 1334.3259 -0.1923 0.9134
2645.8904 1319.0397 -1.1574 0.9021
2647.7744 1303.8680 -2.0238 0.8941
2649.3225 1288.8595 -2.7651 0.8966
2650.1465 1274.2579 -3.2358 0.9057
2653.2158 1258.2573 -4.5472 0.9060
2659.2815 1240.3358 -6.9811 0.8980
2659.3044 1226.1178 -7.1532 0.8931
2648.7261 1218.6592 -3.3545 0.8919
2646.2629 1206.1193 -2.5943 0.8807
2644.0259 1193.4637 -1.9186 0.8621
2637.6838 1183.5576 0.2963 0.8512
2845.9565 3455.3623 -65.5151 0.1340
2837.3057 3435.8491 -62.4978 0.0385
2416.4980 3185.0200 92.4920 -0.0306
2418.7004 3174.8608 91.5457 0.1958
2643.6819 3286.4133 8.4163 0.6238
2661.8315 3283.0977 1.5652 0.9012
2667.3975 3272.8147 -0.6448 0.9093
2661.4763 3256.4231 1.3847 0.8840
2656.2837 3240.4905 3.1461 0.9375
2656.9434 3227.6082 2.7468 0.9882
2658.6211 3215.2195 1.9714 0.9754
2659.9229 3202.6135 1.3345 0.9649
2662.6541 3190.6770 0.1689 0.9633
2665.6113 3178.8013 -1.0809 0.9675
2669.8867 3167.4951 -2.8186 0.9708
2669.6011 3154.0034 -2.8702 0.9757
2669.6592 3140.6665 -3.0490 0.9807
2667.2610 3126.2207 -2.3188 0.9857
2663.6768 3111.2820 -1.1494 0.9874
2655.6313 3094.4575 1.6723 0.9811
2651.2239 3079.2971 3.1482 0.9722
2650.3760 3065.6858 3.3062 0.9717
2652.5220 3053.3110 2.3551 0.9775
2652.5310 3040.0356 2.1956 0.9757
2656.8999 3028.4780 0.4197 0.9674
2653.9473 3014.0076 1.3577 0.9647
2661.6521 3003.6289 -1.6564 0.9698
2658.9253 2989.2383 -0.8022 0.9679
2658.6240 2975.7686 -0.8477 0.9569
2655.6838 2961.3538 0.0862 0.9417
2653.8638 2947.3689 0.6048 0.9306
2655.5105 2934.5918 -0.1636 0.9252
2658.1777 2922.1250 -1.3115 0.9147
2665.3420 2911.0818 -4.1305 0.8829
2651.7869 2893.3047 0.7480 0.8490
2636.1289 2875.0723 6.4103 0.8537
2337.8994 2771.1252 117.1214 0.8848
2338.9324 2760.4646 116.6083 0.8908
2638.7939 2836.1106 4.9515 0.8745
2661.4939 2829.2178 -3.6496 0.8917
2652.6409 2813.3386 -0.5137 0.9463
2649.8250 2799.1938 0.3768 0.9860
2646.5139 2784.9580 1.4520 0.9900
2644.2798 2771.0359 2.1267 0.9880
2647.2542 2758.4075 0.8617 0.9932
2647.5891 2745.1060 0.5794 0.9968
2648.5784 2731.9417 0.0532 0.9919
2649.3340 2718.7043 -0.3861 0.9862
2649.5730 2705.3391 -0.6332 0.9829
2649.0552 2691.8088 -0.5981 0.9854
2645.3196 2677.6465 0.6374 0.9921
2646.8042 2664.5227 -0.0743 0.9980
2648.9517 2651.4902 -1.0336 1.0012
2643.2485 2637.0532 0.9369 1.0034
2647.0251 2624.2725 -0.6309 1.0030
2644.2983 2610.3967 0.2292 0.9952
2642.0930 2596.6348 0.8950 0.9843
2643.9734 2583.4851 0.0345 0.9778
2638.9502 2569.3655 1.7537 0.9794
2637.7795 2555.8083 2.0335 0.9827
2641.7800 2542.8831 0.3799 0.9804
2640.3438 2529.2795 0.7589 0.9687
2641.7996 2515.9937 0.0561 0.9510
2642.2136 2502.5779 -0.2573 0.9331
2641.4368 2489.0435 -0.1249 0.9242
2639.9839 2475.4595 0.2606 0.9247
2636.8013 2461.7642 1.2939 0.9319
2635.3794 2448.2275 1.6683 0.9390
2637.5044 2434.9119 0.7140 0.9368
2638.1023 2421.4805 0.3315 0.9191
2634.7705 2407.8655 1.4218 0.8967
2633.6277 2394.3723 1.6919 0.8880
2631.2456 2380.8567 2.4270 0.8972
2632.1201 2367.4343 1.9408 0.9138
2632.2539 2353.9832 1.7322 0.9279
2632.9509 2340.5251 1.3123 0.9378
2631.3301 2327.0596 1.7622 0.9503
2625.4365 2313.6631 3.8165 0.9667
2629.4309 2300.1577 2.1584 0.9786
2625.8069 2286.7925 3.3613 0.9723
2627.8789 2273.2764 2.4245 0.9408
2619.8367 2260.1570 5.2886 0.8969
2616.8921 2246.8972 6.2378 0.8621
2610.0359 2233.9067 8.6582 0.8570
2625.7019 2219.5188 2.6090 0.8792
2626.8931 2205.9556 2.0023 0.9091
2621.7451 2192.8872 3.7806 0.9351
2629.2207 2178.7576 0.8085 0.9604
2629.2974 2165.2275 0.6205 0.9822
2626.5432 2151.9888 1.4985 0.9888
2623.3120 2138.8411 2.5565 0.9812
2623.4763 2125.3250 2.3357 0.9721
2630.2283 2110.9497 -0.3676 0.9687
2630.7424 2097.3157 -0.7211 0.9698
2630.6968 2083.7480 -0.8635 0.9698
2630.4924 2070.1990 -0.9464 0.9661
2625.4187 2057.4277 0.8077 0.9553
2622.6604 2044.3400 1.6889 0.9365
2627.8557 2029.8875 -0.4311 0.9193
2627.0417 2016.4524 -0.2837 0.9117
2626.1550 2003.0378 -0.1088 0.9151
2626.6177 1989.3606 -0.4434 0.9258
2619.6479 1977.2135 2.0296 0.9279
2621.7524 1963.2128 1.0750 0.9104
2619.1089 1950.2339 1.9144 0.8967
2603.7700 1940.2271 7.5538 0.9243
2605.6907 1926.3263 6.6693 0.9804
2619.9912 1909.3285 1.1019 1.0135
1919.3596 2074.4531 266.0130 1.0068
1918.6174 2066.5986 266.1991 0.9958
1919.8484 2058.2168 265.6385 0.9991
1922.7247 2049.3533 264.4546 0.9975
1920.1411 2042.0059 265.3378 0.9939
1922.4768 2033.2456 264.3581 1.0107
1927.1758 2023.7295 262.4824 1.0210
1940.9802 2011.3077 257.1550 0.9792
2618.1157 1787.4404 0.3714 0.9060
2615.5647 1774.6447 1.1782 0.8736
2613.6963 1761.6548 1.7266 0.9021
2613.0293 1748.2765 1.8195 0.9429
2616.0847 1733.5988 0.5000 0.9640
2613.5334 1720.8734 1.3078 0.9756
2614.3281 1706.9573 0.8457 0.9844
2609.6008 1695.0873 2.4803 0.9832
2612.8408 1680.2419 1.0896 0.9767
2616.0642 1665.3448 -0.2956 0.9746
2613.6458 1652.6348 0.4625 0.9776
2615.0305 1638.4130 -0.2245 0.9829
2610.6096 1626.5652 1.2953 0.9852
2608.9285 1613.6252 1.7740 0.9849
2608.2490 1600.2748 1.8719 0.9826
2604.9539 1588.0741 2.9651 0.9799
2605.4614 1574.2235 2.6116 0.9789
2606.2534 1560.2289 2.1496 0.9805
2611.4670 1544.1726 0.0039 0.9839
2614.2341 1529.1760 -1.2111 0.9873
2614.0603 1515.5334 -1.3065 0.9895
2616.4011 1500.6649 -2.3601 0.9903
2609.3508 1490.3910 0.1652 0.9899
2612.0959 1475.3064 -1.0426 0.9885
2607.4546 1463.9379 0.5656 0.9846
2608.9287 1449.4690 -0.1580 0.9777
2608.8550 1435.7842 -0.2913 0.9715
2611.4919 1420.6456 -1.4592 0.9712
2611.2983 1406.9924 -1.5472 0.9776
2612.6716 1392.4735 -2.2335 0.9846
2610.9785 1379.6377 -1.7491 0.9883
2609.5317 1366.6825 -1.3586 0.9867
2614.5918 1350.0067 -3.4539 0.9810
2619.8179 1333.1454 -5.6139 0.9711
2623.7029 1316.9851 -7.2623 0.9591
2632.4055 1297.8712 -10.7536 0.9465
2632.7620 1283.6732 -11.0544 0.9356
2630.3074 1271.1909 -10.2801 0.9264
2636.6077 1253.2881 -12.8554 0.9230
2630.7625 1242.9396 -10.7833 0.9274
2621.3650 1234.9481 -7.3502 0.9339
2616.6453 1224.0754 -5.7068 0.9305
2613.5684 1212.1956 -4.6917 0.9194
2612.3904 1199.0991 -4.4038 0.9119
2392.5586 3194.9451 89.6909 0.2650
2402.8640 3189.6152 85.6751 0.1737
2318.9553 3131.1602 117.1478 0.0843
2318.2798 3120.1274 117.2741 0.2291
2621.2969 3275.2598 2.9449 0.5530
2625.6316 3264.6553 1.1552 0.7854
2633.1980 3255.6987 -1.8539 0.8269
2629.2673 3240.5911 -0.5282 0.8523
2624.2041 3224.9507 1.2253 0.9308
2627.2427 3213.5081 -0.0774 0.9852
2628.8040 3201.2725 -0.8233 0.9736
2624.1836 3185.9504 0.7642 0.9660
2625.4128 3173.5400 0.1436 0.9701
2634.6821 3164.9578 -3.5140 0.9749
2639.3721 3154.0688 -5.4433 0.9696
2635.3445 3139.0566 -4.0793 0.9672
2624.5247 3120.9978 -0.1475 0.9705
2615.1147 3103.7297 3.2531 0.9775
2615.5083 3090.9253 2.9483 0.9798
2613.3303 3076.9932 3.6159 0.9705
2601.5520 3058.9949 7.9161 0.9574
2609.1428 3049.2793 4.8885 0.9551
2612.8462 3037.8440 3.3309 0.9657
2612.7212 3024.8018 3.2220 0.9750
2623.0090 3015.8777 -0.8303 0.9736
2622.1155 3002.4487 -0.6491 0.9639
2616.5747 2987.2576 1.2930 0.9534
2618.7100 2975.0085 0.3269 0.9470
2612.4536 2959.6538 2.5413 0.9462
2614.5488 2947.3765 1.5903 0.9376
2620.1589 2936.2927 -0.6942 0.9311
2623.1909 2924.2336 -2.0019 0.9482
2627.8611 2912.6709 -3.9317 0.9571
2626.0576 2898.9109 -3.4055 0.8977
2600.8613 2877.6912 6.0010 0.8119
2572.6165 2855.8977 16.5697 0.8084
2363.4104 2779.4224 95.8720 0.8787
2365.6492 2768.9128 94.8872 0.9085
2596.0940 2824.3696 7.1880 0.8763
2610.0938 2815.3472 1.7111 0.8738
2615.3943 2803.7212 -0.4611 0.9268
2614.6892 2790.4080 -0.3508 0.9703
2611.9934 2776.5850 0.5166 0.9772
2608.9219 2762.7019 1.5275 0.9812
2603.1243 2748.1970 3.5763 0.9928
2609.9028 2736.7375 0.8392 0.9987
2604.3777 2722.3633 2.7851 0.9923
2602.2800 2708.8228 3.4266 0.9845
2594.0979 2694.0142 6.3861 0.9806
2600.7417 2682.3630 3.6984 0.9834
2607.5750 2670.6406 0.9372 0.9910
2607.5737 2657.5120 0.7797 0.9989
2606.7241 2644.2222 0.9457 1.0039
2606.6814 2631.0796 0.8042 1.0046
2601.4041 2617.0603 2.6592 1.0008
2606.2671 2604.7256 0.6461 0.9908
2612.1338 2592.4604 -1.7509 0.9775
2610.9258 2579.0852 -1.4486 0.9624
2609.7686 2565.7292 -1.1654 0.9534
2609.3831 2552.4832 -1.1769 0.9545
2607.0693 2539.0046 -0.4517 0.9559
2604.6960 2525.5493 0.2966 0.9405
2608.0120 2512.7192 -1.1292 0.9136
2609.6946 2499.6731 -1.9312 0.8941
2596.6511 2485.2822 2.8973 0.8963
2595.7063 2472.0713 3.1007 0.9103
2601.6746 2459.3782 0.6595 0.9233
2603.9297 2446.3411 -0.3619 0.9236
2602.6074 2433.0547 -0.0147 0.9105
2603.0281 2419.8701 -0.3344 0.8894
2600.4504 2406.5449 0.4937 0.8681
2597.4590 2393.2390 1.4809 0.8512
2596.3796 2380.0247 1.7359 0.8387
2593.1267 2366.7786 2.8240 0.8328
2593.7910 2353.6223 2.4111 0.8412
2591.0859 2340.4363 3.2898 0.8664
2588.8364 2327.2844 3.9943 0.9063
2596.6641 2314.0415 0.8335 0.9466
2592.9705 2300.8967 2.0917 0.9601
2584.3982 2287.9368 5.2230 0.9210
2590.1177 2274.6006 2.8695 0.8590
2579.0796 2261.8899 6.9494 0.8379
2572.9624 2249.0952 9.1411 0.8485
2566.4758 2236.4114 11.4759 0.8319
2579.6362 2222.5156 6.2625 0.7916
2585.6589 2208.9382 3.7898 0.8002
2589.6299 2195.4290 2.1047 0.8705
2596.4001 2181.5991 -0.6578 0.9409
2595.3604 2168.4204 -0.4175 0.9731
2595.7800 2155.0977 -0.7386 0.9783
2593.5969 2142.0566 -0.0583 0.9739
2596.4373 2128.4346 -1.3113 0.9687
2589.7302 2115.9941 1.1111 0.9633
2593.2625 2102.2495 -0.4087 0.9551
2594.1438 2088.8271 -0.9079 0.9429
2589.8794 2076.1704 0.5750 0.9396
2589.6460 2062.9270 0.5053 0.9434
2585.2249 2050.3857 2.0498 0.9421
2588.1199 2036.6179 0.7742 0.9360
2588.1472 2023.3259 0.6039 0.9349
2588.6851 2009.9290 0.2365 0.9405
2584.1082 1997.5402 1.8427 0.9477
2580.0156 1985.1158 3.2626 0.9466
2572.1431 1973.5658 6.1425 0.9334
2579.0886 1958.8185 3.3018 0.9293
2556.8552 1950.7130 11.7300 0.9627
2559.9980 1936.8746 10.3585 1.0143
2565.6328 1922.3638 8.0233 1.0339
1922.6200 2073.3672 256.4075 1.0131
1921.6821 2065.5293 256.6729 0.9943
1916.4420 2058.8684 258.6022 0.9982
1918.1228 2050.3557 257.8553 0.9976
1922.9897 2040.8979 255.8753 0.9931
1922.6854 2032.8843 255.8957 1.0124
1928.2343 2023.0986 253.6503 1.0201
1938.3459 2011.8025 249.6370 0.9554
2583.4685 1797.9336 -0.3120 0.8570
2582.8635 1784.7629 -0.2383 0.8306
2579.0054 1772.6841 1.0958 0.8930
2570.0701 1762.3995 4.3985 0.9575
2565.7717 1750.6249 5.9052 0.9744
2572.9663 1734.7917 2.9559 0.9717
2575.0813 1720.6993 1.9756 0.9735
2574.3384 1707.6364 2.1033 0.9732
2571.6445 1695.3248 2.9883 0.9716
2573.7656 1681.1700 2.0048 0.9757
2572.4888 1668.3285 2.3399 0.9816
2579.8826 1651.9773 -0.6918 0.9875
2576.1042 1640.1304 0.6145 0.9914
2577.0371 1626.3477 0.0912 0.9942
2571.2539 1615.4336 2.1775 0.9946
2570.7849 1602.2759 2.1991 0.9899
2572.9067 1587.9625 1.2134 0.9814
2573.8862 1574.1281 0.6715 0.9741
2577.8167 1558.9061 -1.0187 0.9709
2579.6494 1544.6018 -1.8935 0.9718
2579.2961 1531.3070 -1.9178 0.9742
2576.5203 1519.1897 -0.9991 0.9755
2575.2083 1506.3865 -0.6500 0.9761
2577.0957 1491.9902 -1.5468 0.9789
2574.3984 1479.8972 -0.6580 0.9819
2572.3926 1467.4825 -0.0380 0.9799
2571.5642 1454.4734 0.1233 0.9757
2570.4153 1441.6420 0.4095 0.9774
2573.9844 1426.2620 -1.1441 0.9857
2569.8645 1415.0527 0.3010 0.9915
2578.3633 1396.8516 -3.1767 0.9904
2570.7747 1387.6265 -0.3778 0.9824
2571.3047 1373.8492 -0.7466 0.9726
2571.0679 1360.5038 -0.8162 0.9633
2567.8208 1348.9352 0.2898 0.9510
2561.6614 1339.1570 2.5340 0.9296
2601.5396 1301.5127 -13.2102 0.9052
2600.6548 1288.3022 -13.0297 0.8894
2593.0051 1279.3171 -10.2044 0.8924
2591.2195 1266.7452 -9.6708 0.9102
2594.1208 1251.1971 -10.9705 0.9271
2592.1138 1238.7754 -10.3501 0.9245
2584.8413 1229.8325 -7.6689 0.9073
2574.3105 1223.1646 -3.7110 0.8951
2368.7607 3182.1799 86.9242 0.3628
2384.2410 3179.9749 80.8349 0.2914
2300.4771 3121.6755 112.9214 0.2213
2291.9636 3106.4175 116.0680 0.3340
2580.2205 3253.8423 4.9954 0.5894
2591.8899 3247.4985 0.3477 0.7785
2588.0645 3232.7188 1.6643 0.8189
2592.2495 3222.1970 -0.1038 0.8388
2592.8105 3209.7302 -0.4765 0.8907
2589.7788 3195.4165 0.5349 0.9215
2586.4822 3181.0093 1.6490 0.9068
2587.1467 3168.6062 1.2364 0.9036
2580.3459 3152.5483 3.7025 0.9148
2576.5559 3138.0317 5.0084 0.9255
2581.6099 3127.7437 2.9030 0.9223
2591.3547 3119.5520 -1.0137 0.9152
2584.7947 3103.7539 1.3612 0.9110
2576.3728 3087.2117 4.4562 0.9111
2574.7795 3073.8093 4.9155 0.9119
2577.2791 3062.2026 3.7942 0.9083
2564.1973 3043.9019 8.6924 0.9012
2568.6785 3033.1562 6.8056 0.8959
2577.3394 3024.0564 3.3022 0.8986
2578.8767 3011.9417 2.5514 0.9092
2585.6299 3001.8643 -0.2169 0.9150
2581.8445 2987.5808 1.0900 0.9016
2579.8281 2974.0232 1.7132 0.8794
2576.5974 2960.0361 2.8066 0.8766
2570.0151 2944.8657 5.1980 0.8950
2570.2546 2932.2344 4.9491 0.9023
2577.1255 2921.9185 2.1317 0.9014
2582.9045 2911.1172 -0.2639 0.9259
2583.3762 2898.4414 -0.6043 0.9503
2581.3411 2884.9299 0.0267 0.9115
2556.2351 2864.0564 9.6021 0.8378
2498.9529 2833.5044 31.6590 0.8262
2362.0742 2779.5535 84.5988 0.8806
2397.6553 2778.9539 70.6577 0.9125
2555.2927 2813.1501 9.3460 0.8949
2558.7708 2801.4641 7.8406 0.8872
2578.8906 2794.2834 -0.1266 0.9099
2572.4272 2779.7004 2.2254 0.9250
2569.8655 2766.2209 3.0630 0.9215
2570.4055 2753.5540 2.6960 0.9251
2566.5740 2739.8074 4.0277 0.9383
2574.9312 2728.9888 0.6221 0.9453
2567.8904 2714.5217 3.2017 0.9418
2570.1448 2702.2061 2.1677 0.9417
2566.4919 2688.5925 3.4310 0.9469
2564.3496 2675.3389 4.1072 0.9501
2570.4700 2663.7434 1.5681 0.9500
2570.3853 2650.8699 1.4432 0.9523
2569.2615 2637.8027 1.7228 0.9604
2566.8987 2624.5300 2.4850 0.9688
2564.9487 2611.3564 3.0869 0.9719
2567.4573 2598.9153 1.9517 0.9661
2571.8066 2586.7075 0.0987 0.9486
2571.7649 2573.7964 -0.0436 0.9179
2572.7646 2561.0208 -0.5918 0.8901
2572.1501 2548.0171 -0.5109 0.8827
2566.7688 2534.4431 1.4298 0.8903
2556.2104 2520.3640 5.3916 0.8878
2562.6802 2508.2258 2.7089 0.8713
2562.1975 2495.3064 2.7393 0.8575
2558.8704 2482.1348 3.8806 0.8592
2557.0745 2469.1333 4.4242 0.8672
2567.5247 2457.0564 0.1835 0.8746
2568.9487 2444.2151 -0.5318 0.8757
2571.3333 2431.4016 -1.6229 0.8713
2575.0122 2418.6101 -3.2207 0.8633
2573.5674 2405.5364 -2.8154 0.8517
2571.4458 2392.4548 -2.1452 0.8361
2562.0803 2379.2034 1.3596 0.8167
2558.7410 2366.2085 2.5078 0.8007
2551.1980 2353.2102 5.3021 0.8011
2555.6003 2340.3687 3.4203 0.8233
2556.7649 2327.4648 2.8059 0.8625
2559.1138 2314.5227 1.7271 0.9037
2557.2446 2301.6204 2.3007 0.9188
2558.3411 2288.6594 1.7121 0.8813
2557.1521 2275.7556 2.0193 0.8281
2554.5979 2262.9229 2.8620 0.8286
2546.3767 2250.4119 5.9279 0.8592
2542.5510 2237.7659 7.2706 0.8360
2550.2046 2224.4089 4.1095 0.7706
2552.1636 2211.3494 3.1820 0.7677
2556.0107 2198.0974 1.5127 0.8436
2558.2537 2184.9238 0.4726 0.9091
2561.2502 2171.6348 -0.8640 0.9200
2555.8137 2159.1838 1.1120 0.9110
2556.5818 2146.1067 0.6507 0.9078
2558.8308 2132.8318 -0.3930 0.9060
2546.9143 2121.3469 4.1325 0.9009
2544.9163 2108.6821 4.7595 0.8965
2552.6235 2094.6353 1.5688 0.8928
2553.6973 2081.4749 0.9867 0.8987
2555.1167 2068.2356 0.2683 0.9116
2551.1448 2055.8767 1.6719 0.9232
2558.2063 2041.6263 -1.2684 0.9308
2559.6370 2028.2966 -1.9923 0.9417
2552.5933 2016.5677 0.6220 0.9549
2550.8357 2003.8850 1.1546 0.9624
2544.4126 1992.1946 3.5264 0.9649
2540.8213 1979.9878 4.7828 0.9751
2543.6924 1966.3845 3.4915 0.9836
2543.5977 1953.4166 3.3694 0.9735
2530.7275 1943.5065 8.2877 0.9544
2531.3032 1930.4642 7.9021 0.9584
1920.5006 2073.6533 248.8536 0.9851
1917.5663 2066.3494 249.9129 1.0054
1915.6108 2058.8225 250.5863 1.0077
1917.1285 2050.3523 249.8880 0.9886
1918.7394 2041.8270 249.1525 0.9827
1919.2507 2033.5975 248.8512 1.0268
1922.9132 2024.3998 247.3039 1.0424
1966.3358 2002.7703 230.0339 0.9101
2549.4148 1808.2584 -0.6911 0.7203
2547.5061 1795.7703 -0.0970 0.6973
2539.1721 1785.4585 3.0400 0.8516
2538.0718 1772.7920 3.3155 0.9671
2540.6099 1758.8600 2.1504 0.9475
2540.7080 1745.7566 1.9511 0.8936
2542.4126 1732.0559 1.1154 0.8814
2539.3132 1720.1223 2.1825 0.8840
2536.8669 1707.9817 2.9914 0.8871
2539.4873 1693.8934 1.7923 0.8996
2540.1709 1680.5293 1.3604 0.9109
2543.7241 1665.9806 -0.2096 0.9157
2542.7646 1653.2401 0.0097 0.9175
2543.5784 1639.7588 -0.4745 0.9219
2537.6763 1629.1512 1.7066 0.9296
2534.1016 1617.6107 2.9648 0.9347
2544.7771 1599.7529 -1.4352 0.9330
2544.3201 1586.7815 -1.4155 0.9286
2540.9778 1575.1462 -0.2495 0.9242
2535.5503 1564.5403 1.7457 0.9220
2543.0381 1547.8290 -1.3917 0.9226
2542.4082 1534.9442 -1.3032 0.9266
2541.4810 1522.2100 -1.0966 0.9325
2539.0354 1510.2483 -0.2856 0.9390
2536.3848 1498.4241 0.6072 0.9436
2535.0276 1485.9640 0.9856 0.9451
2533.3542 1473.6866 1.4902 0.9434
2528.6453 1463.0541 3.2036 0.9380
2525.6680 1451.5503 4.2284 0.9368
2524.2615 1439.2216 4.6277 0.9470
2528.3438 1423.8387 2.8402 0.9589
2526.7590 1411.5994 3.3105 0.9514
2530.5903 1396.2616 1.6218 0.9266
2520.3674 1389.0588 5.5367 0.9055
2524.4329 1373.5592 3.7543 0.8967
2520.8889 1362.5519 5.0070 0.8882
2547.0603 1333.5294 -5.5982 0.8779
2557.0398 1314.0520 -9.7453 0.8719
2551.2842 1304.2274 -7.6120 0.8769
2557.1831 1287.1204 -10.1322 0.8889
2563.8120 1269.4436 -12.9452 0.8957
2560.8455 1257.8754 -11.9255 0.8816
2556.6252 1247.1716 -10.4042 0.8553
2542.8352 1242.8914 -5.0565 0.8394
2320.2644 3155.0964 94.2072 0.3821
2330.8452 3150.4575 89.9193 0.3137
2290.6587 3117.0483 105.5657 0.2564
2287.8372 3105.0117 106.5429 0.3891
2475.7717 3197.6226 32.5732 0.6661
2539.9253 3220.4460 7.2127 0.8663
2545.0725 3210.8274 5.0344 0.8932
2551.1946 3201.6377 2.4718 0.8678
2547.6082 3187.3184 3.7260 0.8638
2547.3760 3174.7603 3.6615 0.8608
2544.5286 3160.8838 4.6258 0.8419
2539.1013 3145.7664 6.6059 0.8410
2537.8223 3132.7485 6.9541 0.8521
2540.6831 3121.7334 5.6724 0.8687
2539.9133 3108.9524 5.8199 0.8780
2538.1931 3095.7349 6.3419 0.8732
2544.7654 3086.3323 3.5967 0.8604
2543.7317 3073.4011 3.8479 0.8491
2542.2788 3060.2937 4.2643 0.8471
2539.9680 3046.8296 5.0193 0.8530
2541.2219 3034.9177 4.3687 0.8560
2538.6509 3021.3750 5.2268 0.8448
2541.7791 3010.2148 3.8364 0.8290
2544.0911 2998.6704 2.7674 0.8312
2539.0332 2984.1597 4.6074 0.8432
2537.0051 2970.8997 5.2520 0.8342
2534.9866 2957.6680 5.8931 0.8116
2528.6880 2942.8599 8.2255 0.8179
2531.6555 2931.5374 6.8973 0.8529
2531.4912 2919.0398 6.8063 0.8754
2537.6484 2908.7585 4.2159 0.8754
2534.2388 2895.0908 5.4077 0.8825
2535.1628 2882.9248 4.8858 0.9021
2526.3679 2867.5486 8.2090 0.9149
2496.8611 2845.6611 19.7306 0.9083
2439.9927 2815.6575 42.0887 0.8908
2381.3406 2785.9739 65.1640 0.8826
2456.6477 2797.0500 35.1973 0.9003
2508.3018 2800.1086 14.5859 0.9301
2522.6367 2791.8350 8.7515 0.9398
2525.0171 2780.0527 7.6522 0.9192
2529.1692 2768.7009 5.8500 0.8902
2534.7009 2757.6370 3.4999 0.8737
2532.3596 2744.5010 4.2713 0.8728
2534.1216 2732.3960 3.4152 0.8797
2537.7395 2720.6960 1.8222 0.8846
2534.8728 2707.4529 2.8021 0.8869
2529.5625 2693.7080 4.7528 0.8965
2528.6443 2680.9746 4.9603 0.9101
2531.9294 2669.1123 3.4983 0.9126
2528.1965 2655.8064 4.8238 0.9039
2527.4226 2643.1140 4.9741 0.8986
2531.7778 2631.3623 3.0857 0.9075
2534.6309 2619.2751 1.7937 0.9246
2531.2708 2606.1008 2.9718 0.9381
2528.1506 2593.0107 4.0550 0.9378
2533.2241 2581.2034 1.8787 0.9171
2527.2334 2567.7217 4.1047 0.8784
2526.2520 2555.0073 4.3377 0.8423
2521.1863 2541.7791 6.1970 0.8287
2517.2932 2528.7639 7.5901 0.8392
2515.9138 2516.0859 7.9826 0.8548
2513.1199 2503.2756 8.9390 0.8610
2518.6575 2491.3115 6.5753 0.8578
2523.1790 2479.1648 4.6155 0.8502
2521.3567 2466.4236 5.1843 0.8395
2528.8455 2454.3923 2.0397 0.8347
2523.2349 2441.3728 4.1194 0.8423
2527.1328 2428.9888 2.4059 0.8580
2527.7603 2416.3728 1.9969 0.8709
2527.9990 2403.7241 1.7430 0.8732
2527.2063 2391.0298 1.9007 0.8673
2523.2239 2378.2546 3.3326 0.8582
2521.9294 2365.5874 3.6913 0.8507
2521.5032 2352.9446 3.7033 0.8474
2521.0994 2340.3020 3.7062 0.8477
2521.0437 2327.6580 3.5700 0.8532
2515.1465 2315.0779 5.7698 0.8686
2514.9966 2302.4712 5.6717 0.8838
2510.5737 2289.9773 7.2832 0.8794
2520.0823 2277.0554 3.3200 0.8652
2515.6208 2264.5808 4.9472 0.8707
2518.8457 2251.7781 3.4976 0.8858
2516.4426 2239.2498 4.3011 0.8711
2528.0056 2225.8225 -0.4897 0.8366
2518.4473 2213.7800 3.1805 0.8344
2518.7493 2201.0698 2.9005 0.8666
2516.4834 2188.5801 3.6497 0.8829
2519.0632 2175.6448 2.4562 0.8673
2515.6111 2163.3013 3.6816 0.8521
2514.3025 2150.7622 4.0475 0.8516
2512.6099 2138.2839 4.5678 0.8518
2509.3809 2126.0251 5.7050 0.8492
2508.5808 2113.4771 5.8675 0.8568
2502.8774 2101.6475 7.9993 0.8722
2504.1038 2088.8411 7.3485 0.8859
2516.1011 2074.2756 2.3698 0.8928
2513.6794 2061.9487 3.1834 0.9007
2515.6926 2048.8706 2.2146 0.9129
2518.4951 2035.6080 0.9280 0.9309
2523.0481 2021.9584 -1.0633 0.9501
2518.5847 2010.0374 0.5716 0.9671
2509.7063 1999.0999 3.9839 0.9791
2507.6304 1986.8263 4.6599 0.9916
2505.0120 1974.7002 5.5547 0.9976
2509.5493 1960.9497 3.5685 0.9899
2504.6360 1949.3883 5.3877 0.9754
2498.8108 1938.1249 7.5753 0.9746
1907.3253 2076.7686 245.7710 0.9881
1912.0870 2067.5310 243.7516 1.0017
1917.0514 2058.1589 241.6495 1.0084
1918.3021 2049.7424 241.0440 0.9844
1922.0935 2040.5715 239.4133 0.9741
1918.8929 2033.4025 240.6030 1.0421
1929.6796 2022.0360 236.1483 1.0696
1979.9823 1998.1869 215.7399 0.8629
2501.9282 1822.8945 4.8846 0.5663
2499.1565 1811.0529 5.8443 0.5357
2503.8191 1796.7561 3.8010 0.7811
2503.5769 1784.0627 3.7388 0.9514
2503.8586 1771.1827 3.4647 0.9007
2500.9993 1759.4203 4.4603 0.8043
2496.3567 1748.3522 6.1775 0.7875
2493.2544 1736.7738 7.2726 0.7975
2490.9780 1724.9222 8.0340 0.8026
2497.6848 1709.5865 5.1607 0.8163
2506.2556 1693.3931 1.5313 0.8263
2509.1533 1679.3662 0.1971 0.8295
2507.9275 1666.9987 0.5321 0.8314
2503.3972 1656.0431 2.2059 0.8370
2504.8408 1642.5773 1.4599 0.8489
2503.5208 1630.2964 1.8338 0.8657
2501.4001 1618.3882 2.5323 0.8797
2499.4373 1606.4358 3.1672 0.8884
2500.0198 1593.3290 2.7700 0.8902
2501.3540 1579.8523 2.0677 0.8900
2497.8052 1568.6888 3.3465 0.8902
2497.7087 1555.8929 3.2246 0.8924
2496.7546 1543.5171 3.4508 0.8951
2493.1265 1532.4973 4.7631 0.8974
2495.6829 1518.3651 3.5640 0.8992
2497.0227 1504.8174 2.8586 0.9057
2498.9299 1490.9426 1.9222 0.9085
2499.6169 1477.6841 1.4814 0.8928
2498.1277 1465.5920 1.9252 0.8777
2491.2439 1456.4949 4.5631 0.8964
2489.0999 1444.8483 5.2742 0.9324
2484.4597 1434.6481 7.0014 0.9343
2480.5122 1424.1174 8.4474 0.8947
2479.1294 1412.1455 8.8502 0.8588
2477.4646 1400.3569 9.3680 0.8559
2484.0527 1383.6326 6.5246 0.8729
2490.4343 1366.9210 3.7639 0.8933
2502.3047 1346.7148 -1.2347 0.9059
2508.8994 1329.6055 -4.0856 0.9072
2519.1772 1310.0518 -8.4394 0.8983
2518.0022 1297.6664 -8.1249 0.8810
2524.8953 1280.0563 -11.1013 0.8495
2509.9641 1276.6726 -5.1748 0.8157
2519.0398 1257.5499 -9.0426 0.7989
2318.5496 3155.0461 83.5051 0.3359
2305.8064 3137.0823 88.4739 0.2950
2280.9036 3112.4460 98.3179 0.2744
2289.9089 3107.0525 94.5752 0.4026
2438.2539 3178.0195 34.9652 0.6455
2510.1807 3205.3628 5.9723 0.8459
2516.7129 3196.6982 3.1967 0.9114
2512.1685 3182.0984 4.8639 0.9047
2510.5613 3169.0857 5.3531 0.8814
2509.9067 3156.5784 5.4600 0.8621
2509.8298 3144.3660 5.3353 0.8465
2509.6487 3132.0972 5.2522 0.8492
2512.6750 3121.3923 3.8806 0.8564
2507.7505 3106.8113 5.7031 0.8726
2512.1687 3096.7219 3.7717 0.8880
2508.4727 3082.7803 5.1011 0.8903
2510.2573 3071.3999 4.2274 0.8814
2508.0752 3058.1990 4.9489 0.8689
2511.5659 3047.5383 3.3884 0.8632
2510.0571 3034.6423 3.8390 0.8678
2510.0845 3022.4202 3.6715 0.8703
2513.8318 3011.7551 2.0063 0.8544
2508.0068 2997.0774 4.1949 0.8305
2507.5781 2984.6682 4.2111 0.8287
2507.4041 2972.3604 4.1247 0.8443
2506.1812 2959.6406 4.4608 0.8424
2504.0012 2946.5679 5.1829 0.8266
2499.8169 2932.7722 6.7134 0.8371
2506.1208 2922.8816 4.0152 0.8725
2505.3921 2910.3625 4.1524 0.8951
2500.8826 2896.5200 5.8149 0.8909
2505.2827 2885.8044 3.8828 0.8807
2508.1729 2874.5078 2.5593 0.8898
2496.5640 2858.3962 7.0891 0.9299
2474.0017 2838.9412 16.0445 0.9652
2437.3882 2815.4233 30.6804 0.9471
2422.3582 2799.0579 36.6025 0.8993
2475.4790 2803.2236 14.9850 0.8987
2491.7886 2795.8826 8.2376 0.9479
2499.2493 2785.7844 5.0648 0.9718
2504.6230 2774.9919 2.7344 0.9420
2498.9058 2761.1470 4.8897 0.9036
2492.8020 2747.2832 7.2025 0.8876
2499.7710 2736.8005 4.2254 0.8857
2500.9194 2724.7830 3.6032 0.8877
2501.6799 2712.6504 3.1377 0.8903
2497.8843 2699.4573 4.5174 0.8937
2492.6729 2686.0042 6.4713 0.9034
2490.7466 2673.3259 7.0950 0.9170
2489.5881 2660.8293 7.4077 0.9225
2497.6248 2650.1650 3.9928 0.9183
2496.0513 2637.5430 4.4732 0.9129
2498.0950 2625.5989 3.4867 0.9133
2498.8594 2613.3938 3.0187 0.9175
2495.6013 2600.4985 4.1829 0.9200
2498.9033 2588.6934 2.6848 0.9161
2496.1025 2575.9055 3.6639 0.9034
2492.0303 2562.9724 5.1598 0.8850
2489.1541 2550.2590 6.1704 0.8698
2482.1204 2537.0505 8.8709 0.8640
2486.6470 2525.3391 6.8745 0.8699
2480.8340 2512.3853 9.0802 0.8806
2487.1377 2500.7886 6.3601 0.8884
2488.2893 2488.5862 5.7344 0.8897
2485.0740 2475.9697 6.8847 0.8817
2487.8308 2463.8845 5.6054 0.8656
2483.0134 2451.1907 7.4083 0.8532
2485.9065 2439.0762 6.0731 0.8592
2491.6287 2427.0757 3.5852 0.8818
2487.1001 2414.4612 5.2713 0.9064
2484.7236 2402.0034 6.0815 0.9213
2480.4021 2389.5085 7.6846 0.9251
2488.4390 2377.4116 4.2512 0.9243
2485.6064 2364.9722 5.2476 0.9247
2489.4548 2352.6482 3.5200 0.9204
2490.4456 2340.2473 2.9572 0.9029
2496.0034 2327.8066 0.5307 0.8770
2487.9924 2315.4329 3.6406 0.8631
2490.8101 2302.9663 2.3317 0.8696
2485.2866 2290.6782 4.4278 0.8876
2488.0759 2278.1775 3.1300 0.9047
2485.2097 2265.8706 4.1418 0.9138
2488.4973 2253.2891 2.6397 0.9163
2494.6829 2240.4797 -0.0476 0.9151
2495.9133 2227.8970 -0.7106 0.9156
2493.6726 2215.5479 0.0457 0.9177
2480.5200 2204.1252 5.2652 0.9143
2479.0483 2191.8503 5.7085 0.8996
2479.0857 2179.4443 5.5346 0.8794
2471.4573 2167.8440 8.4983 0.8701
2475.5190 2155.0271 6.6773 0.8732
2481.6987 2141.8823 3.9881 0.8762
2482.4617 2129.3362 3.5164 0.8768
2485.1138 2116.5120 2.2704 0.8857
2475.6582 2105.3987 5.9856 0.9012
2484.1802 2091.6755 2.3336 0.9119
2485.1091 2079.0342 1.7930 0.9140
2486.8474 2066.2351 0.9201 0.9181
2484.3650 2054.1492 1.7782 0.9283
2486.9021 2041.1687 0.5772 0.9438
2489.4343 2028.1431 -0.6225 0.9594
2486.7485 2016.1177 0.3194 0.9750
2485.7742 2003.7720 0.5589 0.9859
2479.5308 1992.5756 2.9628 0.9916
2481.2512 1979.6857 2.0960 0.9927
2482.1135 1966.9612 1.5814 0.9942
2465.0635 1958.5195 8.4290 0.9968
2473.3613 1944.0527 4.8589 1.0004
1925.9446 2071.7483 229.8122 1.0022
1911.3093 2067.4734 235.7280 1.0042
1912.1045 2059.2310 235.2981 1.0084
1914.1986 2050.6084 234.3336 0.9850
1920.4503 2040.7513 231.6571 0.9748
1921.4293 2032.3511 231.1502 1.0411
1918.8446 2025.0138 232.1108 1.0682
1929.1461 2013.6962 227.7635 0.8666
2461.6006 1835.2711 8.2653 0.5688
2458.4670 1823.8561 9.3975 0.5145
2467.2869 1808.4725 5.6027 0.7284
2466.4551 1796.2589 5.7858 0.8947
2465.1116 1784.2323 6.1800 0.8716
2462.6509 1772.6227 7.0354 0.8036
2465.6934 1759.0231 5.6202 0.7986
2464.2766 1747.0438 6.0449 0.8132
2466.6165 1733.6396 4.9190 0.8218
2471.3821 1719.2419 2.7907 0.8325
2470.7817 1706.9060 2.8778 0.8359
2473.7527 1693.1178 1.4894 0.8388
2474.0715 1680.3781 1.1964 0.8442
2472.6084 1668.3820 1.6398 0.8504
2471.2092 1656.3752 2.0570 0.8581
2467.5857 1645.3629 3.3944 0.8732
2467.2942 1632.9108 3.3540 0.8902
2462.9783 1622.2914 4.9789 0.8992
2463.9160 1609.2980 4.4301 0.9006
2463.0232 1597.1475 4.6389 0.9065
2457.8997 1587.0354 6.5998 0.9130
2457.5388 1574.6752 6.5888 0.9071
2460.5898 1560.6223 5.1644 0.8912
2464.4626 1546.0999 3.3987 0.8838
2466.2878 1532.5571 2.4809 0.8910
2468.4727 1518.7917 1.4135 0.9066
2463.3552 1508.8428 3.3739 0.9141
2463.9714 1495.8945 2.9569 0.9008
2463.5205 1483.5110 2.9825 0.8868
2464.8135 1470.1648 2.2843 0.9047
2457.4434 1461.6489 5.1820 0.9389
2454.1790 1450.9104 6.3764 0.9414
2456.6636 1436.9022 5.1836 0.9047
2457.4595 1423.8352 4.6917 0.8731
2460.5791 1409.3715 3.2341 0.8771
2458.2454 1398.1285 4.0422 0.9064
2452.1477 1389.2107 6.4157 0.9397
2460.7200 1371.3287 2.6899 0.9565
2462.7253 1357.4086 1.6938 0.9523
2467.6538 1341.5973 -0.5190 0.9358
2473.1060 1325.3636 -2.9508 0.9117
2476.9485 1310.0811 -4.7139 0.8713
2475.8723 1297.9659 -4.4299 0.8276
2491.4531 1274.7655 -11.0829 0.8058
2274.5205 3130.4595 90.0947 0.2799
2268.5242 3116.6692 92.4102 0.2953
2251.0803 3096.4993 99.4063 0.3351
2242.3755 3081.4573 102.8326 0.4124
2276.3574 3090.0049 88.8024 0.5291
2280.1985 3081.6951 87.0954 0.6931
2463.8350 3169.4302 11.8194 0.8462
2469.5579 3160.6252 9.3229 0.9296
2480.3552 3154.3638 4.7478 0.9297
2480.9419 3142.7073 4.3515 0.9124
2479.8640 3130.1963 4.6370 0.9064
2478.3362 3117.4724 5.1067 0.9130
2482.5835 3107.5903 3.2103 0.9138
2476.7310 3092.7756 5.4525 0.9220
2475.8926 3080.4197 5.6401 0.9321
2474.5032 3067.8140 6.0539 0.9416
2475.1001 3056.1343 5.6531 0.9477
2475.4475 3044.3279 5.3544 0.9462
2476.0952 3032.6433 4.9324 0.9394
2478.6306 3021.7656 3.7354 0.9329
2471.6338 3006.7612 6.4513 0.9240
2477.6580 2997.3352 3.8213 0.9052
2482.2322 2987.2129 1.7857 0.8851
2477.9622 2973.4292 3.3828 0.8836
2473.3320 2959.5613 5.1287 0.8970
2474.9553 2948.1982 4.3049 0.9016
2465.5544 2932.5872 8.0135 0.8971
2466.1221 2920.8513 7.6240 0.9046
2464.2002 2908.1870 8.2586 0.9249
2459.6973 2894.6177 9.9555 0.9377
2477.5930 2888.9954 2.4347 0.9352
2472.9219 2875.3230 4.2002 0.9272
2473.6062 2863.5195 3.7614 0.9291
2464.6545 2848.5293 7.2910 0.9503
2456.7070 2833.9927 10.4088 0.9695
2416.7336 2809.5269 26.7245 0.9560
2442.1855 2805.6887 16.0826 0.9220
2453.3040 2797.1785 11.3446 0.9142
2461.8235 2787.7363 7.6759 0.9402
2480.5557 2781.0469 -0.2067 0.9621
2481.1091 2769.0598 -0.5935 0.9600
2466.0249 2752.8740 5.4726 0.9504
2469.2395 2741.6692 3.9886 0.9465
2468.5420 2729.4236 4.1191 0.9470
2467.9702 2717.2126 4.1978 0.9491
2463.9802 2704.1960 5.6883 0.9516
2463.7725 2692.1011 5.6169 0.9532
2464.5042 2680.2114 5.1573 0.9562
2462.2930 2667.6760 5.9139 0.9627
2464.4968 2656.0781 4.8455 0.9694
2461.3843 2643.3862 5.9752 0.9731
2464.0520 2631.8379 4.7142 0.9712
2466.4199 2620.1875 3.5768 0.9608
2461.0930 2607.1477 5.6235 0.9424
2461.7947 2595.1929 5.1755 0.9232
2456.5874 2582.2793 7.1741 0.9122
2448.9834 2569.0759 10.1662 0.9137
2441.4260 2555.9915 13.1405 0.9230
2448.8010 2545.0537 9.9286 0.9339
2450.7390 2533.2964 8.9686 0.9407
2459.3232 2522.3059 5.2529 0.9414
2461.2390 2510.4231 4.3006 0.9338
2464.8171 2498.6792 2.6583 0.9244
2470.3311 2487.0620 0.2121 0.9215
2458.9641 2473.8398 4.7700 0.9203
2460.7800 2461.8682 3.8581 0.9117
2461.5771 2449.7869 3.3687 0.8993
2458.0950 2437.4028 4.6562 0.9000
2455.4546 2425.1169 5.5947 0.9183
2449.8523 2412.7158 7.7643 0.9418
2453.5098 2400.7935 6.0867 0.9593
2452.7131 2388.6521 6.2598 0.9654
2460.7305 2376.7581 2.7681 0.9639
2466.2698 2364.6841 0.3053 0.9597
2461.5928 2352.3982 2.0914 0.9512
2462.6521 2340.2017 1.4914 0.9325
2457.9160 2328.0054 3.3032 0.9058
2457.2344 2315.8296 3.4281 0.8851
2457.1472 2303.6470 3.3053 0.8788
2455.6997 2291.4968 3.7492 0.8859
2457.7146 2279.2417 2.7507 0.9000
2458.1223 2267.0181 2.4215 0.9133
2455.5466 2254.9336 3.3358 0.9241
2458.3547 2242.5676 2.0058 0.9339
2464.4263 2229.9338 -0.6858 0.9425
2460.0759 2217.9749 0.9686 0.9458
2458.6267 2205.8396 1.4133 0.9422
2450.4023 2194.3325 4.6858 0.9369
2445.8743 2182.5862 6.4169 0.9333
2447.4382 2170.2593 5.6052 0.9342
2450.1785 2157.7681 4.3018 0.9379
2448.2175 2145.7998 4.9617 0.9425
2445.6624 2133.9333 5.8703 0.9453
2445.7563 2121.7368 5.6720 0.9466
2443.9487 2109.8098 6.2686 0.9476
2448.3945 2096.9463 4.2506 0.9505
2442.2410 2085.7156 6.6649 0.9541
2445.3906 2073.0027 5.1882 0.9575
2442.1208 2061.3704 6.3972 0.9606
2443.3135 2048.9583 5.7390 0.9664
2447.6492 2035.9152 3.7644 0.9740
2447.7944 2023.6389 3.5439 0.9804
2451.0129 2010.7125 2.0357 0.9838
2443.2576 2000.1064 5.1248 0.9863
2448.5222 1986.6941 2.7588 0.9877
2444.7061 1975.3026 4.1983 0.9882
2444.2571 1963.1565 4.2267 0.9875
2451.7085 1949.0493 0.9417 0.9877
1952.7190 2064.6274 210.1059 0.9900
1931.9659 2061.7515 218.7047 0.9965
1908.8171 2059.8535 228.3134 1.0056
1909.9757 2051.5095 227.7224 0.9923
1913.6914 2042.4061 226.0573 0.9850
1913.7205 2034.3313 225.9399 1.0246
1916.8751 2025.3018 224.5092 1.0408
1917.9944 2016.8529 223.9332 0.9161
2388.4822 1858.1667 26.0675 0.7133
2389.3735 1846.0022 25.5379 0.6273
2438.3174 1817.6715 4.8000 0.7094
2440.1562 1804.7567 3.8663 0.8243
2435.3655 1794.1401 5.7215 0.8769
2432.1311 1783.0336 6.9226 0.8883
2434.1060 1770.0560 5.9314 0.8950
2433.7361 1757.9222 5.9269 0.9022
2437.3516 1744.2578 4.2441 0.9140
2434.0447 1733.2432 5.4765 0.9227
2440.6958 1718.2914 2.5135 0.9197
2438.0757 1707.0106 3.4567 0.9218
2438.0540 1694.6844 3.3049 0.9297
2431.7249 1685.0275 5.8128 0.9363
2428.7654 1674.0099 6.9006 0.9384
2428.1177 1662.0162 7.0137 0.9432
2435.4827 1646.4352 3.7453 0.9479
2435.9761 1633.8651 3.3760 0.9421
2432.1802 1623.2725 4.8175 0.9333
2429.5415 1612.1881 5.7709 0.9404
2423.4783 1602.7854 8.1715 0.9527
2424.1555 1590.1816 7.7252 0.9418
2431.6436 1574.1787 4.4002 0.9127
2425.4214 1564.9678 6.8694 0.9013
2427.5198 1551.5848 5.8215 0.9175
2425.4780 1540.3180 6.5241 0.9379
2431.3286 1524.9044 3.8882 0.9468
2431.5940 1512.3884 3.6145 0.9483
2428.2634 1501.8225 4.8627 0.9502
2435.8638 1485.2574 1.4836 0.9561
2426.5654 1478.0481 5.2591 0.9597
2426.1526 1465.9236 5.2727 0.9527
2428.6936 1452.0941 4.0347 0.9368
2429.1108 1439.4607 3.6963 0.9285
2433.9697 1424.1779 1.4749 0.9363
2431.8623 1413.0021 2.2060 0.9550
2431.7344 1400.6467 2.0980 0.9741
2421.8062 1394.3447 6.1475 0.9801
2414.9436 1386.2777 8.8980 0.9767
2409.9531 1377.1293 10.8555 0.9740
2417.3762 1360.0802 7.5439 0.9658
2423.2161 1343.9344 4.9029 0.9316
2433.2668 1324.9136 0.4721 0.8836
2433.8660 1312.0255 0.0545 0.8571
2258.2351 3121.9221 85.8099 0.2935
2261.7334 3113.6794 84.2157 0.3376
2242.3347 3092.4333 92.1652 0.3996
2238.8267 3080.3401 93.4930 0.4234
2283.1555 3094.6191 74.8711 0.4457
2289.1162 3087.3992 72.2455 0.5859
2425.6211 3149.9465 15.1488 0.8031
2428.5779 3139.9624 13.7612 0.9465
2446.7922 3137.8623 6.0036 0.9569
2447.4812 3126.4998 5.5599 0.9371
2442.4978 3112.2573 7.4853 0.9385
2439.3442 3098.9946 8.6471 0.9456
2445.0232 3090.0999 6.1187 0.9357
2438.2861 3075.1270 8.7786 0.9334
2441.6216 3065.0308 7.2286 0.9388
2435.4827 3050.4541 9.6400 0.9532
2442.5015 3042.0085 6.5490 0.9707
2453.0510 3035.0449 1.9795 0.9803
2435.8608 3015.5972 9.0156 0.9781
2434.7407 3003.4194 9.3290 0.9673
2431.0898 2990.1675 10.7020 0.9507
2441.1550 2982.7427 6.3318 0.9288
2443.5625 2971.9922 5.1671 0.9084
2447.6206 2961.8687 3.3102 0.8993
2436.8457 2945.7700 7.6685 0.9029
2441.1858 2935.7349 5.6932 0.9134
2435.6475 2921.8442 7.8587 0.9227
2433.3596 2909.2520 8.6621 0.9249
2435.4370 2898.2952 7.6347 0.9270
2445.4048 2890.1414 3.2961 0.9376
2441.0942 2876.7979 4.9478 0.9533
2446.0139 2866.6960 2.7257 0.9599
2444.7771 2854.4387 3.0874 0.9509
2438.7375 2840.6121 5.4665 0.9357
2419.2605 2822.5491 13.4916 0.9230
2406.7244 2806.9592 18.6042 0.9182
2425.1936 2801.0557 10.6878 0.9194
2431.3762 2791.1926 7.9329 0.9234
2441.8689 2782.4832 3.3641 0.9303
2439.8638 2770.0657 4.0498 0.9451
2441.4312 2758.6580 3.2328 0.9636
2435.2756 2745.1509 5.6653 0.9750
2435.6365 2733.4292 5.3563 0.9762
2429.1384 2719.9639 7.9347 0.9755
2429.3496 2708.2354 7.6890 0.9777
2427.8713 2696.0974 8.1548 0.9824
2432.4307 2685.3616 6.0771 0.9872
2432.0022 2673.4438 6.1003 0.9911
2432.1257 2661.6448 5.8910 0.9923
2430.8154 2649.5430 6.2860 0.9881
2426.8540 2636.9292 7.7993 0.9808
2428.5259 2625.4453 6.9370 0.9733
2435.0183 2614.8120 4.0402 0.9640
2432.7058 2602.5293 4.8582 0.9472
2430.5366 2590.3005 5.6159 0.9293
2422.0549 2577.0913 9.0396 0.9227
2422.1238 2565.3074 8.8536 0.9279
2420.2336 2553.2339 9.4951 0.9303
2419.0935 2541.2869 9.8199 0.9289
2426.9880 2530.5142 6.3264 0.9328
2430.3789 2519.0684 4.7351 0.9415
2436.3813 2507.8596 2.0386 0.9400
2439.9751 2496.2981 0.3597 0.9273
2428.9702 2483.2495 4.8563 0.9167
2424.4973 2470.9534 6.5908 0.9093
2420.9363 2458.7959 7.9403 0.8966
2428.8530 2447.5400 4.4308 0.8860
2432.1763 2435.8501 2.8650 0.8960
2432.3259 2423.9158 2.6427 0.9239
2425.6533 2411.6270 5.3109 0.9455
2422.5159 2399.5884 6.4821 0.9516
2423.4368 2387.7361 5.9336 0.9512
2426.2573 2375.9153 4.5793 0.9474
2425.0178 2363.9653 4.9463 0.9320
2431.1238 2352.1150 2.1974 0.9121
2428.8936 2340.1306 2.9844 0.9034
2411.0862 2328.2361 10.3831 0.9059
2416.3235 2316.3442 8.0023 0.9060
2420.7651 2304.3801 5.9582 0.8971
2424.4153 2292.3621 4.2493 0.8853
2432.6238 2280.1201 0.6029 0.8796
2426.8445 2268.3464 2.8988 0.8834
2425.9077 2256.4109 3.1375 0.8934
2424.8376 2244.4922 3.4330 0.9024
2424.3899 2232.5425 3.4641 0.9081
2420.4827 2220.8525 4.9667 0.9154
2419.5103 2208.9758 5.2212 0.9254
2420.1362 2196.9644 4.7958 0.9348
2416.8767 2185.3181 6.0240 0.9388
2422.8943 2172.7339 3.3029 0.9380
2419.3672 2161.1365 4.6454 0.9348
2425.3752 2148.4268 1.9266 0.9355
2415.1199 2137.7266 6.1363 0.9408
2419.2852 2125.1975 4.2020 0.9468
2417.2322 2113.5017 4.9176 0.9510
2417.6765 2101.4492 4.5687 0.9557
2408.7610 2090.8943 8.2117 0.9572
2407.7307 2079.1394 8.4926 0.9508
2402.6616 2068.1108 10.4969 0.9405
2404.1665 2055.9395 9.6964 0.9383
2410.2927 2042.8466 6.9223 0.9464
2410.3499 2030.8702 6.7387 0.9589
2408.7417 2019.2352 7.2664 0.9692
2415.0391 2005.9053 4.4166 0.9741
2416.9795 1993.4490 3.4274 0.9779
2408.7588 1983.3206 6.7813 0.9894
2417.0537 1969.3419 3.0751 0.9937
2406.8987 1959.8125 7.2578 0.9689
1979.8533 2057.4006 189.7826 0.9343
1929.1816 2062.2188 211.3504 0.9385
1907.7848 2059.8625 220.3993 0.9811
1910.1232 2051.1865 219.2914 1.0003
1912.6620 2042.4115 218.0973 0.9957
1914.6652 2033.7507 217.1320 1.0107
1913.0063 2026.1686 217.7351 1.0201
1914.3147 2017.6820 217.0669 0.9527
2384.7095 1858.8932 15.3314 0.8198
2384.5833 1847.0791 15.2278 0.7139
2409.2297 1826.9288 4.5003 0.7067
2410.0979 1814.5665 3.9674 0.7933
2405.3042 1804.1792 5.8635 0.9038
2409.0308 1790.7924 4.1040 0.9590
2405.5232 1780.0046 5.4489 0.9493
2404.5056 1768.3298 5.7253 0.9315
2406.2288 1755.6119 4.8250 0.9402
2401.7070 1745.3109 6.6067 0.9517
2406.7507 1731.2460 4.2792 0.9483
2403.5337 1720.4685 5.5010 0.9477
2401.0298 1709.4397 6.4168 0.9538
2395.8779 1699.5695 8.4718 0.9628
2397.3911 1686.8926 7.6610 0.9705
2390.1626 1678.0376 10.6108 0.9737
2393.2693 1664.6554 9.1143 0.9680
2390.2100 1654.0336 10.2712 0.9514
2395.4302 1639.6068 7.8640 0.9332
